# .PCD v0.7 - Point Cloud Data file format
VERSION 0.7
FIELDS x y z rgb
SIZE 4 4 4 4
TYPE F F F F
COUNT 1 1 1 1
WIDTH 941
HEIGHT 1
VIEWPOINT 0 0 0 1 0 0 0
POINTS 941
DATA ascii
1.1859076 -1.6652908 -3.6358833e-06 1.3829344e-38
1.1958055 -1.6652918 -4.529953e-06 1.3829344e-38
1.2057018 -1.6652905 -3.3378601e-06 1.3829344e-38
1.2156001 -1.6652921 -4.9670539e-06 1.3829344e-38
1.2254961 -1.6652905 -3.2782555e-06 1.3829344e-38
1.2353944 -1.6652918 -4.6888986e-06 1.3829344e-38
1.2452903 -1.6652902 -3.0398369e-06 1.3829344e-38
1.2551886 -1.6652918 -4.4902167e-06 1.3829344e-38
1.2650852 -1.6652908 -3.695488e-06 1.3829344e-38
1.2749828 -1.6652914 -4.3312707e-06 1.3829344e-38
1.2848794 -1.6652907 -3.516674e-06 1.3829344e-38
-1.2401494 -1.6599367 -1.1920929e-07 1.3829344e-38
-1.2342238 -1.6599367 -1.1920929e-07 1.3829344e-38
-1.2243479 -1.6599365 -1.1920929e-07 1.3829344e-38
-1.1848453 -1.6599383 -1.9073486e-06 1.3829344e-38
-1.1749693 -1.6599383 -1.9073486e-06 1.3829344e-38
-1.1650933 -1.6599383 -1.9073486e-06 1.3829344e-38
-1.1552174 -1.6599383 -1.9073486e-06 1.3829344e-38
-1.1453413 -1.6599382 -1.8278757e-06 1.3829344e-38
-1.1354653 -1.6599382 -1.7881393e-06 1.3829344e-38
-1.1255893 -1.6599382 -1.7881393e-06 1.3829344e-38
-1.1144984 -1.6572741 -1.4305115e-06 1.3829344e-38
-1.1056621 -1.6578068 -1.5020371e-06 1.3829344e-38
-1.0947653 -1.6572739 -1.4305115e-06 1.3829344e-38
-1.0858216 -1.656386 -1.3113022e-06 1.3829344e-38
-1.0758348 -1.65461 -1.0728836e-06 1.3829344e-38
-1.0640088 -1.6546097 -8.3446503e-07 1.3829344e-38
-0.97334486 -1.6546115 -2.7418137e-06 1.3829344e-38
-0.96546096 -1.6546115 -2.7418137e-06 1.3829344e-38
-0.95560598 -1.6546115 -2.7418137e-06 1.3829344e-38
-0.94575113 -1.6546115 -2.7418137e-06 1.3829344e-38
-0.93589628 -1.6546115 -2.7418137e-06 1.3829344e-38
-0.92604131 -1.6546115 -2.6623409e-06 1.3829344e-38
-0.91421533 -1.6546112 -2.5033951e-06 1.3829344e-38
-0.90304583 -1.6563867 -2.0265579e-06 1.3829344e-38
-0.89449966 -1.6567419 -1.9311906e-06 1.3829344e-38
-0.88462925 -1.6578071 -1.6450882e-06 1.3829344e-38
-0.87477273 -1.6567415 -1.5497208e-06 1.3829344e-38
-0.86489373 -1.6578064 -8.8214875e-07 1.3829344e-38
-0.85504568 -1.6567408 -7.867813e-07 1.3829344e-38
-0.84515846 -1.6578064 -7.867813e-07 1.3829344e-38
-0.83531892 -1.6567405 -5.9604645e-07 1.3829344e-38
-0.82542342 -1.6578064 -7.1525574e-07 1.3829344e-38
-0.81559229 -1.6567405 -5.9604645e-07 1.3829344e-38
-0.80568838 -1.6578064 -7.1525574e-07 1.3829344e-38
-0.79586565 -1.6567405 -5.9604645e-07 1.3829344e-38
-0.78499228 -1.6572737 -6.5565109e-07 1.3829344e-38
-0.77411222 -1.6578062 -6.914139e-07 1.3829344e-38
-0.76430303 -1.6567402 -4.053116e-07 1.3829344e-38
-0.7543782 -1.6578083 -2.837181e-06 1.3829344e-38
-0.74457705 -1.6567417 -1.9311906e-06 1.3829344e-38
-0.7346431 -1.6578083 -2.837181e-06 1.3829344e-38
-0.72485048 -1.6567417 -1.9311906e-06 1.3829344e-38
-0.71490741 -1.6578071 -1.6927719e-06 1.3829344e-38
-0.70512331 -1.6567411 -1.1682511e-06 1.3829344e-38
-0.6955992 -1.6586065 -1.9073486e-06 1.3829344e-38
-0.68436557 -1.657275 -2.2649765e-06 1.3829344e-38
-0.67543751 -1.6578077 -2.3126602e-06 1.3829344e-38
-0.66567051 -1.6567421 -2.2172928e-06 1.3829344e-38
-0.6547693 -1.6572748 -2.2649765e-06 1.3829344e-38
-0.6449039 -1.657275 -2.2649765e-06 1.3829344e-38
-0.63503838 -1.6572748 -2.2649765e-06 1.3829344e-38
-0.62517291 -1.6572747 -2.1755695e-06 1.3829344e-38
-0.61530745 -1.6572747 -2.0861626e-06 1.3829344e-38
-0.6043911 -1.6578076 -2.1457672e-06 1.3829344e-38
-0.59465444 -1.6567419 -2.0265579e-06 1.3829344e-38
-0.58465594 -1.6578076 -2.1457672e-06 1.3829344e-38
-0.57492775 -1.6567419 -2.0265579e-06 1.3829344e-38
-0.56492084 -1.6578076 -2.1457672e-06 1.3829344e-38
-0.55943877 -1.6546106 -1.7881393e-06 1.3829344e-38
0.56459975 -1.6572762 -3.5365422e-06 1.3829344e-38
0.57552993 -1.6567444 -4.4584276e-06 1.3829344e-38
0.58523941 -1.6578095 -4.1007997e-06 1.3829344e-38
0.59525651 -1.6567438 -4.0292739e-06 1.3829344e-38
0.60497439 -1.657809 -3.6478043e-06 1.3829344e-38
0.61498338 -1.6567442 -4.4584276e-06 1.3829344e-38
0.62470967 -1.6578096 -4.1007997e-06 1.3829344e-38
0.63470995 -1.6567438 -3.9100646e-06 1.3829344e-38
0.64444464 -1.6578093 -3.7908553e-06 1.3829344e-38
0.65536183 -1.657276 -3.3577282e-06 1.3829344e-38
0.66522777 -1.6572773 -4.5597553e-06 1.3829344e-38
0.67509294 -1.6572766 -3.8345656e-06 1.3829344e-38
0.6849587 -1.6572773 -4.7683716e-06 1.3829344e-38
0.69482356 -1.6572762 -3.4570694e-06 1.3829344e-38
0.7057265 -1.656745 -5.2213668e-06 1.3829344e-38
0.71549118 -1.6578093 -3.8385392e-06 1.3829344e-38
0.72545278 -1.6567444 -4.3869018e-06 1.3829344e-38
0.73522609 -1.6578089 -3.4570694e-06 1.3829344e-38
0.74517947 -1.6567442 -4.3869018e-06 1.3829344e-38
0.75496143 -1.6578093 -3.9339066e-06 1.3829344e-38
0.76490611 -1.6567442 -4.3153764e-06 1.3829344e-38
0.77469617 -1.6578085 -3.1232835e-06 1.3829344e-38
0.78463286 -1.6567442 -4.3630598e-06 1.3829344e-38
0.79443157 -1.6578095 -3.8623812e-06 1.3829344e-38
0.80435956 -1.6567442 -4.2438505e-06 1.3829344e-38
0.81416667 -1.657809 -3.6001206e-06 1.3829344e-38
0.82504773 -1.6572766 -3.9339066e-06 1.3829344e-38
0.83592176 -1.6567433 -3.2424928e-06 1.3829344e-38
0.8457433 -1.6578099 -4.3630598e-06 1.3829344e-38
0.8556484 -1.656743 -3.2663345e-06 1.3829344e-38
0.86547792 -1.657809 -3.671646e-06 1.3829344e-38
0.87537509 -1.656743 -3.2424928e-06 1.3829344e-38
0.88521349 -1.6578099 -4.4107437e-06 1.3829344e-38
0.89510173 -1.656743 -3.1948089e-06 1.3829344e-38
0.90494841 -1.6578095 -4.0531158e-06 1.3829344e-38
0.9148289 -1.6567438 -3.9339066e-06 1.3829344e-38
0.92468357 -1.6578095 -4.1007997e-06 1.3829344e-38
0.93455565 -1.656744 -4.2676925e-06 1.3829344e-38
0.94441843 -1.657809 -3.695488e-06 1.3829344e-38
0.95428193 -1.6567434 -3.4570694e-06 1.3829344e-38
0.96415389 -1.6578096 -4.1246412e-06 1.3829344e-38
0.97500294 -1.6572771 -4.3511391e-06 1.3829344e-38
0.98584449 -1.6567433 -3.2901764e-06 1.3829344e-38
0.9957301 -1.6578096 -4.1961671e-06 1.3829344e-38
1.0055711 -1.6567433 -3.1948089e-06 1.3829344e-38
1.0154653 -1.6578096 -4.1723251e-06 1.3829344e-38
1.0252979 -1.6567434 -3.5762787e-06 1.3829344e-38
1.0352001 -1.6578093 -3.8385392e-06 1.3829344e-38
1.0450242 -1.6567427 -2.7894973e-06 1.3829344e-38
1.0549355 -1.6578096 -4.2915344e-06 1.3829344e-38
1.064751 -1.656743 -3.1471252e-06 1.3829344e-38
1.0746702 -1.6578093 -3.8385392e-06 1.3829344e-38
1.0844777 -1.656743 -3.1948089e-06 1.3829344e-38
1.0944057 -1.6578096 -4.3153764e-06 1.3829344e-38
1.1042045 -1.6567433 -3.4570694e-06 1.3829344e-38
1.1150898 -1.6572765 -3.7948291e-06 1.3829344e-38
1.1249545 -1.6572752 -2.5629997e-06 1.3829344e-38
1.1348208 -1.6572765 -3.9935112e-06 1.3829344e-38
1.1457165 -1.657809 -3.6239624e-06 1.3829344e-38
1.155494 -1.6567434 -3.6239624e-06 1.3829344e-38
1.1654516 -1.657809 -3.6001206e-06 1.3829344e-38
1.1752207 -1.6567434 -3.5762787e-06 1.3829344e-38
1.1851871 -1.6578095 -4.0292739e-06 1.3829344e-38
1.1949476 -1.6567438 -3.8623812e-06 1.3829344e-38
1.204922 -1.657809 -3.671646e-06 1.3829344e-38
1.2146738 -1.656743 -3.1232835e-06 1.3829344e-38
1.2246571 -1.657809 -3.671646e-06 1.3829344e-38
1.234401 -1.6567436 -3.7670136e-06 1.3829344e-38
1.2453136 -1.6572765 -3.6358833e-06 1.3829344e-38
1.255179 -1.6572762 -3.5464764e-06 1.3829344e-38
1.2650446 -1.6572762 -3.516674e-06 1.3829344e-38
1.27491 -1.6572763 -3.5762787e-06 1.3829344e-38
1.2819368 -1.6581641 -3.4570694e-06 1.3829344e-38
-1.2325693 -1.647544 -1.1920929e-06 1.3829344e-38
-1.2245239 -1.6461351 -9.2983248e-07 1.3829344e-38
-1.2157528 -1.6466634 -1.013279e-06 1.3829344e-38
-1.2046221 -1.6440216 -5.9604645e-07 1.3829344e-38
-1.193707 -1.6457828 -8.7420148e-07 1.3829344e-38
-1.1862804 -1.6466634 -9.5367432e-07 1.3829344e-38
-1.1757681 -1.649305 -1.4305115e-06 1.3829344e-38
-1.1639675 -1.649305 -1.4305115e-06 1.3829344e-38
-1.1541336 -1.6493049 -1.3113022e-06 1.3829344e-38
-1.1442996 -1.6493049 -1.3113022e-06 1.3829344e-38
-1.1344657 -1.6493049 -1.3113022e-06 1.3829344e-38
-1.1246318 -1.6493049 -1.3113022e-06 1.3829344e-38
-1.1145256 -1.646136 -1.8119812e-06 1.3829344e-38
-1.1047908 -1.6471924 -1.6450882e-06 1.3829344e-38
-1.0948828 -1.646136 -1.8119812e-06 1.3829344e-38
-1.0851396 -1.6471924 -1.5497208e-06 1.3829344e-38
-1.07524 -1.646136 -1.7166137e-06 1.3829344e-38
-1.0654886 -1.6471924 -1.5020371e-06 1.3829344e-38
-1.0555974 -1.646136 -1.7166137e-06 1.3829344e-38
-1.0458375 -1.6471924 -1.4781951e-06 1.3829344e-38
-1.035 -1.646664 -1.5497208e-06 1.3829344e-38
-1.0240644 -1.6440233 -2.0265579e-06 1.3829344e-38
-1.0142514 -1.6440232 -2.0265579e-06 1.3829344e-38
-1.004438 -1.6440226 -1.3907751e-06 1.3829344e-38
-0.99462414 -1.6440213 -1.1920929e-07 1.3829344e-38
-0.98481113 -1.6440214 -1.1920929e-07 1.3829344e-38
-0.97499812 -1.6440213 -1.1920929e-07 1.3829344e-38
-0.96911037 -1.6440213 -1.1920929e-07 1.3829344e-38
-0.90238661 -1.6493063 -2.7418137e-06 1.3829344e-38
-0.89451951 -1.6493063 -2.7418137e-06 1.3829344e-38
-0.88468558 -1.6493063 -2.7418137e-06 1.3829344e-38
-0.8748517 -1.6493063 -2.7418137e-06 1.3829344e-38
-0.86501771 -1.6493063 -2.6623409e-06 1.3829344e-38
-0.85518378 -1.6493063 -2.5033951e-06 1.3829344e-38
-0.84534913 -1.649305 -1.2318293e-06 1.3829344e-38
-0.83460402 -1.6466646 -2.1457672e-06 1.3829344e-38
-0.82574576 -1.6471924 -1.7881393e-06 1.3829344e-38
-0.81595629 -1.6461357 -1.5497208e-06 1.3829344e-38
-0.80513316 -1.6466635 -1.0728836e-06 1.3829344e-38
-0.79430366 -1.6471916 -9.7751615e-07 1.3829344e-38
-0.78452772 -1.6461353 -1.1205673e-06 1.3829344e-38
-0.7746526 -1.6471916 -9.0599059e-07 1.3829344e-38
-0.76488507 -1.6461353 -1.1205673e-06 1.3829344e-38
-0.75500149 -1.6471916 -9.0599059e-07 1.3829344e-38
-0.7452423 -1.6461353 -1.0251999e-06 1.3829344e-38
-0.73535043 -1.6471914 -8.1062319e-07 1.3829344e-38
-0.72559965 -1.6461351 -9.7751615e-07 1.3829344e-38
-0.7147575 -1.6466633 -8.5433322e-07 1.3829344e-38
-0.70493412 -1.6466632 -7.7486038e-07 1.3829344e-38
-0.69511062 -1.6466631 -7.7486038e-07 1.3829344e-38
-0.68425763 -1.6471913 -6.6757201e-07 1.3829344e-38
-0.6745286 -1.646135 -8.5830686e-07 1.3829344e-38
-0.66605204 -1.6457828 -8.7420148e-07 1.3829344e-38
-0.65509564 -1.6440223 -1.1920929e-06 1.3829344e-38
-0.64528263 -1.6440222 -1.1920929e-06 1.3829344e-38
-0.63939488 -1.6440222 -1.1920929e-06 1.3829344e-38
-0.61523646 -1.6493056 -2.0265579e-06 1.3829344e-38
-0.60540253 -1.6493057 -2.0265579e-06 1.3829344e-38
-0.59556866 -1.6493056 -2.0265579e-06 1.3829344e-38
-0.58573478 -1.6493057 -2.0265579e-06 1.3829344e-38
-0.57393408 -1.6493057 -2.0265579e-06 1.3829344e-38
-0.56410015 -1.6493056 -1.7881393e-06 1.3829344e-38
0.55893123 -1.649307 -3.4570694e-06 1.3829344e-38
0.5653165 -1.6461372 -3.0755996e-06 1.3829344e-38
0.5749805 -1.6471941 -3.5762787e-06 1.3829344e-38
0.58495915 -1.6461372 -3.0279159e-06 1.3829344e-38
0.59463143 -1.6471939 -3.1948089e-06 1.3829344e-38
0.60460174 -1.6461369 -2.670288e-06 1.3829344e-38
0.61428249 -1.6471939 -3.1948089e-06 1.3829344e-38
0.62607336 -1.6471945 -3.7431716e-06 1.3829344e-38
0.63498318 -1.6466656 -3.1888485e-06 1.3829344e-38
0.6448065 -1.6466655 -2.9603641e-06 1.3829344e-38
0.65567279 -1.6461369 -2.7179717e-06 1.3829344e-38
0.66537553 -1.6471945 -3.7908553e-06 1.3829344e-38
0.6753155 -1.6461369 -2.69413e-06 1.3829344e-38
0.68502682 -1.6471949 -4.1961671e-06 1.3829344e-38
0.69495809 -1.6461365 -2.4080277e-06 1.3829344e-38
0.70467776 -1.6471945 -3.8623812e-06 1.3829344e-38
0.71460092 -1.646137 -2.7656556e-06 1.3829344e-38
0.72432905 -1.6471951 -4.2915344e-06 1.3829344e-38
0.73518211 -1.6466652 -2.8212864e-06 1.3829344e-38
0.74500585 -1.6466656 -3.2484531e-06 1.3829344e-38
0.75482923 -1.6466656 -3.2981236e-06 1.3829344e-38
0.76567209 -1.6461375 -3.1471252e-06 1.3829344e-38
0.77542102 -1.6471932 -2.5749207e-06 1.3829344e-38
0.78531468 -1.6461369 -2.7894973e-06 1.3829344e-38
0.79507256 -1.6471941 -3.3855438e-06 1.3829344e-38
0.80495739 -1.646137 -2.8848649e-06 1.3829344e-38
0.81472337 -1.6471937 -3.0279159e-06 1.3829344e-38
0.82459992 -1.6461365 -2.4557114e-06 1.3829344e-38
0.83437455 -1.6471937 -3.0755996e-06 1.3829344e-38
0.84424287 -1.646137 -2.8848649e-06 1.3829344e-38
0.85402584 -1.6471941 -3.5047531e-06 1.3829344e-38
0.86485153 -1.6466651 -2.6027362e-06 1.3829344e-38
0.87567103 -1.6461366 -2.5033951e-06 1.3829344e-38
0.88546723 -1.6471937 -2.9325486e-06 1.3829344e-38
0.8953141 -1.6461375 -3.3140182e-06 1.3829344e-38
0.90511835 -1.6471937 -2.9802322e-06 1.3829344e-38
0.91495687 -1.6461375 -3.2663345e-06 1.3829344e-38
0.9247694 -1.6471936 -3.0040742e-06 1.3829344e-38
0.93459976 -1.6461378 -3.671646e-06 1.3829344e-38
0.94442046 -1.6471936 -3.0279159e-06 1.3829344e-38
0.95424205 -1.6461372 -2.9563903e-06 1.3829344e-38
0.96485674 -1.6471937 -3.0279159e-06 1.3829344e-38
0.9758628 -1.6471945 -3.9815905e-06 1.3829344e-38
0.98566991 -1.6461365 -2.1934509e-06 1.3829344e-38
0.99551344 -1.6471939 -3.2663345e-06 1.3829344e-38
1.0053127 -1.6461363 -2.2172928e-06 1.3829344e-38
1.0151646 -1.6471943 -3.5762787e-06 1.3829344e-38
1.0249556 -1.6461369 -2.69413e-06 1.3829344e-38
1.0348155 -1.6471941 -3.2424928e-06 1.3829344e-38
1.044598 -1.6461365 -2.2411346e-06 1.3829344e-38
1.0544667 -1.6471939 -3.3378601e-06 1.3829344e-38
1.0642666 -1.6466653 -2.8610229e-06 1.3829344e-38
1.0750716 -1.6466656 -3.2186508e-06 1.3829344e-38
1.0859081 -1.6471933 -2.7179717e-06 1.3829344e-38
1.095669 -1.6461365 -2.3365021e-06 1.3829344e-38
1.1055593 -1.6471939 -3.1709671e-06 1.3829344e-38
1.1153122 -1.6461369 -2.7656556e-06 1.3829344e-38
1.12521 -1.6471932 -2.4080277e-06 1.3829344e-38
1.1349546 -1.6461365 -2.3603438e-06 1.3829344e-38
1.1448618 -1.6471943 -3.671646e-06 1.3829344e-38
1.1545975 -1.6461369 -2.7179717e-06 1.3829344e-38
1.1645126 -1.6471939 -3.2424928e-06 1.3829344e-38
1.1742396 -1.646136 -2.002716e-06 1.3829344e-38
1.1850945 -1.6466662 -3.8146973e-06 1.3829344e-38
1.1949186 -1.6466671 -4.7981739e-06 1.3829344e-38
1.2047423 -1.6466675 -5.0067902e-06 1.3829344e-38
1.2156056 -1.6471941 -3.528595e-06 1.3829344e-38
1.2253129 -1.6461394 -5.1498414e-06 1.3829344e-38
1.2352574 -1.6471951 -4.3392183e-06 1.3829344e-38
1.2449558 -1.6461394 -5.1498414e-06 1.3829344e-38
1.2549078 -1.6471943 -3.5762787e-06 1.3829344e-38
1.2645983 -1.6461389 -4.8637389e-06 1.3829344e-38
1.2745593 -1.6471946 -3.9100646e-06 1.3829344e-38
-1.2252461 -1.6366669 -9.0599059e-07 1.3829344e-38
-1.2153289 -1.6356194 -1.1205673e-06 1.3829344e-38
-1.2056783 -1.6366669 -9.0599059e-07 1.3829344e-38
-1.1948538 -1.6361445 -2.3643177e-06 1.3829344e-38
-1.1850724 -1.6361451 -3.0398369e-06 1.3829344e-38
-1.1752907 -1.6361451 -3.0199687e-06 1.3829344e-38
-1.1644757 -1.6356208 -2.69413e-06 1.3829344e-38
-1.1548033 -1.6366684 -2.4080277e-06 1.3829344e-38
-1.144915 -1.6356194 -1.001358e-06 1.3829344e-38
-1.1352344 -1.6366669 -7.867813e-07 1.3829344e-38
-1.1267852 -1.6370159 -7.1525574e-07 1.3829344e-38
-1.1158484 -1.6387615 -3.5762787e-07 1.3829344e-38
-1.1040977 -1.6387615 -3.5762787e-07 1.3829344e-38
-1.0943055 -1.6387614 -2.9802322e-07 1.3829344e-38
-1.0845133 -1.6387612 -2.3841858e-07 1.3829344e-38
-1.0747211 -1.6387613 -2.3841858e-07 1.3829344e-38
-1.064929 -1.6387612 -2.3841858e-07 1.3829344e-38
-1.0551369 -1.6387613 -2.3841858e-07 1.3829344e-38
-1.0453447 -1.6387612 -2.3841858e-07 1.3829344e-38
-1.0355525 -1.6387613 -2.3841858e-07 1.3829344e-38
-1.0257603 -1.6387612 -2.3841858e-07 1.3829344e-38
-1.0140096 -1.638761 -1.1920929e-07 1.3829344e-38
-1.0042176 -1.638761 -1.1920929e-07 1.3829344e-38
-0.99442536 -1.638761 -1.1920929e-07 1.3829344e-38
-0.9832719 -1.6370159 -1.0728836e-06 1.3829344e-38
-0.975743 -1.6361434 -1.5497208e-06 1.3829344e-38
-0.9649151 -1.6335262 -2.9802322e-06 1.3829344e-38
-0.95514369 -1.6335261 -2.9802322e-06 1.3829344e-38
-0.94537139 -1.6335249 -1.7086664e-06 1.3829344e-38
-0.93559957 -1.6335242 -9.5367432e-07 1.3829344e-38
-0.92582804 -1.6335241 -8.3446503e-07 1.3829344e-38
-0.91410238 -1.6335241 -8.3446503e-07 1.3829344e-38
-0.90433562 -1.6366675 -1.4066696e-06 1.3829344e-38
-0.89455432 -1.6356195 -1.2159347e-06 1.3829344e-38
-0.88476783 -1.6366675 -1.4066696e-06 1.3829344e-38
-0.87499487 -1.6356198 -1.2159347e-06 1.3829344e-38
-0.86520004 -1.6366673 -1.2636185e-06 1.3829344e-38
-0.85543537 -1.6356194 -1.0490418e-06 1.3829344e-38
-0.84563226 -1.6366673 -1.2159347e-06 1.3829344e-38
-0.83587587 -1.6356194 -1.0490418e-06 1.3829344e-38
-0.8251031 -1.6361433 -1.1324883e-06 1.3829344e-38
-0.81432378 -1.636667 -1.2159347e-06 1.3829344e-38
-0.80458081 -1.6356194 -1.0490418e-06 1.3829344e-38
-0.79575777 -1.6361432 -1.0728836e-06 1.3829344e-38
-0.78511935 -1.6335238 -6.357829e-07 1.3829344e-38
-0.77534795 -1.6335237 -5.9604645e-07 1.3829344e-38
-0.76641077 -1.6361442 -2.0265579e-06 1.3829344e-38
-0.75549847 -1.6387645 -3.4570694e-06 1.3829344e-38
-0.74570632 -1.6387645 -3.4570694e-06 1.3829344e-38
-0.73591417 -1.6387645 -3.4570694e-06 1.3829344e-38
-0.72416347 -1.6387644 -3.2981236e-06 1.3829344e-38
-0.71437126 -1.6387643 -3.2186508e-06 1.3829344e-38
-0.70457911 -1.6387643 -3.2186508e-06 1.3829344e-38
-0.69402784 -1.6361449 -2.7418137e-06 1.3829344e-38
-0.68517751 -1.6366688 -2.837181e-06 1.3829344e-38
-0.67548925 -1.6356208 -2.6464463e-06 1.3829344e-38
-0.66468251 -1.636145 -2.7418137e-06 1.3829344e-38
-0.65490067 -1.6361449 -2.7418137e-06 1.3829344e-38
-0.64511877 -1.6361446 -2.5828679e-06 1.3829344e-38
-0.6343013 -1.6366686 -2.5987624e-06 1.3829344e-38
-0.62463456 -1.6356208 -2.4080277e-06 1.3829344e-38
-0.6147334 -1.6366682 -2.2172928e-06 1.3829344e-38
-0.60507476 -1.6356201 -1.6450882e-06 1.3829344e-38
-0.59516537 -1.6366676 -1.4543533e-06 1.3829344e-38
-0.58551514 -1.6356198 -1.2636185e-06 1.3829344e-38
-0.57468915 -1.6361427 -5.5631e-07 1.3829344e-38
-0.5657661 -1.6370158 -5.9604645e-07 1.3829344e-38
-0.55965412 -1.638762 -8.3446503e-07 1.3829344e-38
0.55942863 -1.6335249 -1.6689301e-06 1.3829344e-38
0.56480896 -1.6366699 -4.1723251e-06 1.3829344e-38
0.57474959 -1.6356218 -3.3617021e-06 1.3829344e-38
0.58437657 -1.6366698 -3.8623812e-06 1.3829344e-38
0.59521371 -1.6361452 -3.1193097e-06 1.3829344e-38
0.60499597 -1.6361464 -4.3213367e-06 1.3829344e-38
0.61477733 -1.6361451 -2.9802322e-06 1.3829344e-38
0.62560427 -1.635622 -3.7431716e-06 1.3829344e-38
0.63525248 -1.6366689 -3.1232835e-06 1.3829344e-38
0.64516389 -1.6356226 -4.2676925e-06 1.3829344e-38
0.65482044 -1.6366695 -3.695488e-06 1.3829344e-38
0.66472328 -1.6356224 -4.0292739e-06 1.3829344e-38
0.67438835 -1.6366699 -4.1007997e-06 1.3829344e-38
0.68520665 -1.6361459 -3.8146973e-06 1.3829344e-38
0.69498849 -1.6361461 -3.9339066e-06 1.3829344e-38
0.70477027 -1.6361457 -3.7153561e-06 1.3829344e-38
0.71557778 -1.635622 -3.6478043e-06 1.3829344e-38
0.72526443 -1.6366698 -3.8623812e-06 1.3829344e-38
0.73513734 -1.635622 -3.7908553e-06 1.3829344e-38
0.74483204 -1.6366694 -3.5047531e-06 1.3829344e-38
0.75469661 -1.6356218 -3.528595e-06 1.3829344e-38
0.76439989 -1.6366695 -3.6239624e-06 1.3829344e-38
0.77519923 -1.6361459 -3.8941703e-06 1.3829344e-38
0.78498071 -1.6361451 -3.0398369e-06 1.3829344e-38
0.79476267 -1.6361456 -3.4570694e-06 1.3829344e-38
0.80555105 -1.6356214 -3.1471252e-06 1.3829344e-38
0.81527615 -1.6366695 -3.7670136e-06 1.3829344e-38
0.82511044 -1.6356213 -2.8848649e-06 1.3829344e-38
0.83484399 -1.6366698 -3.8623812e-06 1.3829344e-38
0.84466994 -1.6356214 -3.0040742e-06 1.3829344e-38
0.85441172 -1.6366698 -3.9100646e-06 1.3829344e-38
0.86422932 -1.6356213 -2.7894973e-06 1.3829344e-38
0.87497163 -1.6361459 -3.6756198e-06 1.3829344e-38
0.88572013 -1.6366698 -3.8862227e-06 1.3829344e-38
0.89552498 -1.635622 -3.8146973e-06 1.3829344e-38
0.90528774 -1.6366695 -3.5524367e-06 1.3829344e-38
0.91508514 -1.6356236 -5.1498414e-06 1.3829344e-38
0.92485619 -1.6366707 -4.9114228e-06 1.3829344e-38
0.93464488 -1.6356242 -5.6982039e-06 1.3829344e-38
0.94442403 -1.6366708 -4.9829482e-06 1.3829344e-38
0.95420456 -1.6356242 -5.9127806e-06 1.3829344e-38
0.96496511 -1.6361475 -5.1657357e-06 1.3829344e-38
0.97573245 -1.6366708 -4.9352648e-06 1.3829344e-38
0.98549938 -1.6356236 -5.2690507e-06 1.3829344e-38
0.99530011 -1.6366707 -4.7445296e-06 1.3829344e-38
1.0050591 -1.6356242 -5.7935713e-06 1.3829344e-38
1.0148675 -1.6366704 -4.4107437e-06 1.3829344e-38
1.0246181 -1.6356236 -5.1975248e-06 1.3829344e-38
1.034436 -1.6366711 -5.2690507e-06 1.3829344e-38
1.0441781 -1.6356242 -5.6982039e-06 1.3829344e-38
1.0549575 -1.636147 -4.8875809e-06 1.3829344e-38
1.0657443 -1.6366711 -5.1975248e-06 1.3829344e-38
1.075473 -1.6356236 -5.2213668e-06 1.3829344e-38
1.085312 -1.6366708 -4.9352648e-06 1.3829344e-38
1.0950323 -1.6356232 -4.9114228e-06 1.3829344e-38
1.1048797 -1.6366711 -5.0783156e-06 1.3829344e-38
1.1145918 -1.6356233 -5.0306321e-06 1.3829344e-38
1.1244475 -1.6366707 -4.7683716e-06 1.3829344e-38
1.1341515 -1.6356236 -5.1975248e-06 1.3829344e-38
1.1449505 -1.6361471 -5.2452087e-06 1.3829344e-38
1.1557558 -1.6366707 -4.7206877e-06 1.3829344e-38
1.1654468 -1.6356237 -5.4359434e-06 1.3829344e-38
1.1753237 -1.6366708 -4.839897e-06 1.3829344e-38
1.1850059 -1.6356236 -5.1736833e-06 1.3829344e-38
1.1948916 -1.6366708 -4.9114228e-06 1.3829344e-38
1.2045659 -1.6356239 -5.7220459e-06 1.3829344e-38
1.2153791 -1.6361469 -4.8279762e-06 1.3829344e-38
1.2251612 -1.636147 -5.0067902e-06 1.3829344e-38
1.2349433 -1.6361475 -5.3842864e-06 1.3829344e-38
1.2457674 -1.6366705 -4.5776369e-06 1.3829344e-38
1.2554202 -1.6356236 -5.3167341e-06 1.3829344e-38
1.2653354 -1.6366707 -4.7683716e-06 1.3829344e-38
1.2721155 -1.6361465 -4.4107437e-06 1.3829344e-38
-1.1948979 -1.6283094 -1.6689301e-06 1.3829344e-38
-1.185147 -1.6283094 -1.6689301e-06 1.3829344e-38
-1.1753962 -1.6283094 -1.6689301e-06 1.3829344e-38
-1.1656455 -1.6283092 -1.5894572e-06 1.3829344e-38
-1.1539444 -1.6283091 -1.5497208e-06 1.3829344e-38
-1.1441936 -1.6283091 -1.5497208e-06 1.3829344e-38
-1.1344429 -1.6283091 -1.5497208e-06 1.3829344e-38
-1.1234838 -1.6257129 -2.2351742e-06 1.3829344e-38
-1.1147611 -1.6262321 -2.0742416e-06 1.3829344e-38
-1.1049328 -1.6251936 -2.3365021e-06 1.3829344e-38
-1.0964671 -1.6248474 -2.4239223e-06 1.3829344e-38
-1.0853004 -1.6231169 -2.8610229e-06 1.3829344e-38
-1.0755701 -1.6231167 -2.8610229e-06 1.3829344e-38
-1.0658385 -1.6231149 -8.3446503e-07 1.3829344e-38
-1.0541624 -1.6231149 -8.3446503e-07 1.3829344e-38
-1.044432 -1.6231147 -7.1525574e-07 1.3829344e-38
-1.0347017 -1.6231146 -5.9604645e-07 1.3829344e-38
-1.0249715 -1.6231146 -5.9604645e-07 1.3829344e-38
-1.0152413 -1.6231146 -5.9604645e-07 1.3829344e-38
-1.005511 -1.6231146 -5.9604645e-07 1.3829344e-38
-0.99578089 -1.6231146 -5.9604645e-07 1.3829344e-38
-0.98410457 -1.6231146 -5.9604645e-07 1.3829344e-38
-0.97437441 -1.6231146 -5.9604645e-07 1.3829344e-38
-0.96464401 -1.6231145 -4.7683716e-07 1.3829344e-38
-0.95491385 -1.6231145 -4.7683716e-07 1.3829344e-38
-0.94518358 -1.6231145 -4.7683716e-07 1.3829344e-38
-0.93545341 -1.6231145 -4.7683716e-07 1.3829344e-38
-0.92572314 -1.6231145 -4.7683716e-07 1.3829344e-38
-0.91356635 -1.624413 -6.2584877e-07 1.3829344e-38
-0.90432107 -1.626231 -8.3446503e-07 1.3829344e-38
-0.89555281 -1.6257114 -7.4505806e-07 1.3829344e-38
-0.88482243 -1.6283087 -1.0728836e-06 1.3829344e-38
-0.87507164 -1.6283085 -1.0728836e-06 1.3829344e-38
-0.86532086 -1.6283087 -8.3446503e-07 1.3829344e-38
-0.85557002 -1.6283085 -8.3446503e-07 1.3829344e-38
-0.84430921 -1.6262316 -1.4066696e-06 1.3829344e-38
-0.83417499 -1.6262316 -1.4066696e-06 1.3829344e-38
-0.82446492 -1.625193 -1.6689301e-06 1.3829344e-38
-0.81468993 -1.6262314 -1.3589859e-06 1.3829344e-38
-0.80498803 -1.625193 -1.6212464e-06 1.3829344e-38
-0.7952047 -1.6262314 -1.3113022e-06 1.3829344e-38
-0.78551102 -1.625193 -1.5735626e-06 1.3829344e-38
-0.77477306 -1.625712 -1.4305115e-06 1.3829344e-38
-0.76402849 -1.6262314 -1.2874603e-06 1.3829344e-38
-0.75434804 -1.625193 -1.5735626e-06 1.3829344e-38
-0.74454337 -1.6262312 -1.2397766e-06 1.3829344e-38
-0.73501158 -1.6231159 -2.0265579e-06 1.3829344e-38
-0.72528136 -1.6231158 -2.0265579e-06 1.3829344e-38
-0.71555114 -1.6231159 -2.0265579e-06 1.3829344e-38
-0.69609159 -1.6231178 -3.9339066e-06 1.3829344e-38
-0.68441528 -1.6231178 -3.9339066e-06 1.3829344e-38
-0.67468494 -1.6231176 -3.695488e-06 1.3829344e-38
-0.66495472 -1.6231176 -3.695488e-06 1.3829344e-38
-0.65522444 -1.6231176 -3.695488e-06 1.3829344e-38
-0.64549422 -1.6231176 -3.695488e-06 1.3829344e-38
-0.635764 -1.6231176 -3.695488e-06 1.3829344e-38
-0.62580121 -1.6251945 -3.1232835e-06 1.3829344e-38
-0.61502951 -1.6257137 -2.9802322e-06 1.3829344e-38
-0.60425121 -1.6262329 -2.8133393e-06 1.3829344e-38
-0.59463799 -1.6251943 -3.0517579e-06 1.3829344e-38
-0.58476603 -1.6262329 -2.7894973e-06 1.3829344e-38
-0.5751611 -1.6251943 -3.0040742e-06 1.3829344e-38
-0.56528085 -1.6262329 -2.6464463e-06 1.3829344e-38
-0.5598681 -1.6231174 -3.5762787e-06 1.3829344e-38
0.56552064 -1.6257139 -3.317992e-06 1.3829344e-38
0.5752607 -1.6257126 -1.847744e-06 1.3829344e-38
0.58500153 -1.6257135 -2.8411548e-06 1.3829344e-38
0.59578836 -1.625193 -1.5735626e-06 1.3829344e-38
0.60538429 -1.6262341 -3.9577485e-06 1.3829344e-38
0.61637759 -1.6265794 -3.1789143e-06 1.3829344e-38
0.62486923 -1.6262335 -3.4093857e-06 1.3829344e-38
0.63565016 -1.6257136 -2.8014183e-06 1.3829344e-38
0.64435452 -1.6262337 -3.695488e-06 1.3829344e-38
0.65513372 -1.6257149 -4.1524568e-06 1.3829344e-38
0.66487461 -1.6257156 -5.0663948e-06 1.3829344e-38
0.67461509 -1.6257156 -4.9471855e-06 1.3829344e-38
0.68538332 -1.6251959 -4.5776369e-06 1.3829344e-38
0.69501632 -1.6262348 -4.7922135e-06 1.3829344e-38
0.70486003 -1.6251955 -4.1723251e-06 1.3829344e-38
0.71450126 -1.6262343 -4.1723251e-06 1.3829344e-38
0.72526544 -1.6257148 -4.0928521e-06 1.3829344e-38
0.73500657 -1.6257163 -5.6326389e-06 1.3829344e-38
0.74474639 -1.6257147 -3.9339066e-06 1.3829344e-38
0.75550061 -1.6251965 -5.3167341e-06 1.3829344e-38
0.76516229 -1.6262335 -3.3617021e-06 1.3829344e-38
0.77497733 -1.6251962 -4.8875809e-06 1.3829344e-38
0.78464735 -1.6262333 -3.2663345e-06 1.3829344e-38
0.7944544 -1.6251965 -5.1975248e-06 1.3829344e-38
0.80413276 -1.6262341 -3.9100646e-06 1.3829344e-38
0.81487846 -1.6257153 -4.4703484e-06 1.3829344e-38
0.82561672 -1.6251949 -3.5762787e-06 1.3829344e-38
0.83530891 -1.6262341 -3.8862227e-06 1.3829344e-38
0.84509385 -1.6251951 -3.9339066e-06 1.3829344e-38
0.8547945 -1.6262344 -4.529953e-06 1.3829344e-38
0.86457092 -1.6251957 -4.4107437e-06 1.3829344e-38
0.87427938 -1.6262341 -4.1007997e-06 1.3829344e-38
0.88501018 -1.6257149 -4.529953e-06 1.3829344e-38
0.89573383 -1.6251951 -3.9100646e-06 1.3829344e-38
0.90545607 -1.6262348 -4.9114228e-06 1.3829344e-38
0.91521084 -1.6251957 -4.2915344e-06 1.3829344e-38
0.92494118 -1.6262348 -4.6968462e-06 1.3829344e-38
0.93468779 -1.6251955 -4.1961671e-06 1.3829344e-38
0.94442594 -1.6262341 -4.1484832e-06 1.3829344e-38
0.95416439 -1.6251951 -3.7193299e-06 1.3829344e-38
0.96488041 -1.6257151 -4.4703484e-06 1.3829344e-38
0.97560233 -1.6262343 -4.2915344e-06 1.3829344e-38
0.98532808 -1.6251959 -4.553795e-06 1.3829344e-38
0.99508715 -1.6262338 -3.7670136e-06 1.3829344e-38
1.0048048 -1.6251961 -4.6253203e-06 1.3829344e-38
1.0145719 -1.6262333 -3.2186508e-06 1.3829344e-38
1.0242821 -1.6251961 -4.839897e-06 1.3829344e-38
1.0350119 -1.6257148 -4.1325889e-06 1.3829344e-38
1.0457488 -1.6262344 -4.4107437e-06 1.3829344e-38
1.0554444 -1.6251949 -3.671646e-06 1.3829344e-38
1.0652339 -1.6262343 -4.2915344e-06 1.3829344e-38
1.0749209 -1.6251945 -3.1709671e-06 1.3829344e-38
1.0847191 -1.6262343 -4.1007997e-06 1.3829344e-38
1.0943984 -1.6251953 -3.9577485e-06 1.3829344e-38
1.1051438 -1.6257151 -4.4902167e-06 1.3829344e-38
1.1158955 -1.6262344 -4.5776369e-06 1.3829344e-38
1.1255615 -1.6251951 -3.9339066e-06 1.3829344e-38
1.1353803 -1.6262343 -4.0769578e-06 1.3829344e-38
1.145038 -1.6251949 -3.5524367e-06 1.3829344e-38
1.1548662 -1.6262352 -5.1498414e-06 1.3829344e-38
1.1645151 -1.6251951 -3.8146973e-06 1.3829344e-38
1.1752754 -1.6257151 -4.4306121e-06 1.3829344e-38
1.1850152 -1.6257141 -3.3676624e-06 1.3829344e-38
1.1947564 -1.6257149 -4.2716661e-06 1.3829344e-38
1.2055258 -1.6262327 -2.670288e-06 1.3829344e-38
1.2151561 -1.6251962 -5.0306321e-06 1.3829344e-38
1.2250118 -1.6262337 -3.671646e-06 1.3829344e-38
1.2346327 -1.6251957 -4.529953e-06 1.3829344e-38
1.2454065 -1.6257142 -3.4173329e-06 1.3829344e-38
1.2551475 -1.6257147 -3.9935112e-06 1.3829344e-38
1.2639815 -1.6262331 -2.9802322e-06 1.3829344e-38
-1.2143619 -1.612792 -1.1920929e-07 1.3829344e-38
-1.2046726 -1.612792 -1.1920929e-07 1.3829344e-38
-1.1959326 -1.6166561 -1.3709068e-06 1.3829344e-38
-1.1839515 -1.6179441 -1.7881393e-06 1.3829344e-38
-1.1742418 -1.617944 -1.7881393e-06 1.3829344e-38
-1.1645318 -1.6179439 -1.748403e-06 1.3829344e-38
-1.1548221 -1.6179438 -1.6689301e-06 1.3829344e-38
-1.1451123 -1.6179438 -1.6689301e-06 1.3829344e-38
-1.1354026 -1.6179438 -1.6689301e-06 1.3829344e-38
-1.1255043 -1.6158838 -1.7166137e-06 1.3829344e-38
-1.1147865 -1.6153688 -1.7285347e-06 1.3829344e-38
-1.1040752 -1.6148539 -1.7404557e-06 1.3829344e-38
-1.0944591 -1.6158838 -1.7166137e-06 1.3829344e-38
-1.0846802 -1.6148536 -1.6927719e-06 1.3829344e-38
-1.0750557 -1.6158836 -1.6450882e-06 1.3829344e-38
-1.065285 -1.6148536 -1.6927719e-06 1.3829344e-38
-1.0556525 -1.6158835 -1.6450882e-06 1.3829344e-38
-1.0458901 -1.6148535 -1.6927719e-06 1.3829344e-38
-1.0341409 -1.6127936 -1.7881393e-06 1.3829344e-38
-1.0244516 -1.6127936 -1.7881393e-06 1.3829344e-38
-1.018638 -1.6127936 -1.7881393e-06 1.3829344e-38
-0.91402102 -1.6179452 -3.2186508e-06 1.3829344e-38
-0.90431118 -1.6179452 -3.2186508e-06 1.3829344e-38
-0.89460146 -1.6179452 -3.2186508e-06 1.3829344e-38
-0.88489169 -1.6179452 -3.2186508e-06 1.3829344e-38
-0.87518191 -1.6179452 -3.2186508e-06 1.3829344e-38
-0.86547178 -1.6179444 -2.4239223e-06 1.3829344e-38
-0.85576129 -1.617943 -1.0728836e-06 1.3829344e-38
-0.84514087 -1.615369 -2.0861626e-06 1.3829344e-38
-0.83439976 -1.6179432 -1.0728836e-06 1.3829344e-38
-0.82468998 -1.617943 -1.0728836e-06 1.3829344e-38
-0.81498027 -1.6179432 -1.0728836e-06 1.3829344e-38
-0.80527055 -1.617943 -1.0728836e-06 1.3829344e-38
-0.79556078 -1.6179432 -1.0728836e-06 1.3829344e-38
-0.78390902 -1.6179429 -8.3446503e-07 1.3829344e-38
-0.77419925 -1.6179429 -8.3446503e-07 1.3829344e-38
-0.76448959 -1.6179429 -8.3446503e-07 1.3829344e-38
-0.75477982 -1.6179429 -8.3446503e-07 1.3829344e-38
-0.74506998 -1.6179429 -8.3446503e-07 1.3829344e-38
-0.73536026 -1.6179429 -8.3446503e-07 1.3829344e-38
-0.72565055 -1.6179429 -8.3446503e-07 1.3829344e-38
-0.71399879 -1.6179428 -6.7551929e-07 1.3829344e-38
-0.70352703 -1.6153688 -1.7285347e-06 1.3829344e-38
-0.69475299 -1.6158835 -1.4543533e-06 1.3829344e-38
-0.68569601 -1.6140816 -2.2053719e-06 1.3829344e-38
-0.6756348 -1.6127946 -2.7418137e-06 1.3829344e-38
-0.66594547 -1.6127945 -2.7418137e-06 1.3829344e-38
-0.65431768 -1.6127934 -1.4702479e-06 1.3829344e-38
-0.64462805 -1.6127928 -8.3446503e-07 1.3829344e-38
-0.6343134 -1.6140808 -1.2516975e-06 1.3829344e-38
-0.62490159 -1.6158838 -1.7881393e-06 1.3829344e-38
-0.61531991 -1.6148533 -1.3589859e-06 1.3829344e-38
-0.60459143 -1.6153687 -1.5497208e-06 1.3829344e-38
-0.59489191 -1.6153685 -1.5497208e-06 1.3829344e-38
-0.58519238 -1.6153685 -1.5497208e-06 1.3829344e-38
-0.57445323 -1.6158836 -1.7404557e-06 1.3829344e-38
-0.56489283 -1.6148533 -1.2636185e-06 1.3829344e-38
0.55935693 -1.6153725 -5.7220459e-06 1.3829344e-38
0.56517619 -1.6153712 -4.3213367e-06 1.3829344e-38
0.57487559 -1.6153708 -3.8544335e-06 1.3829344e-38
0.58561975 -1.614856 -4.1246412e-06 1.3829344e-38
0.59517014 -1.6158857 -3.8146973e-06 1.3829344e-38
0.6050148 -1.614856 -3.9339066e-06 1.3829344e-38
0.61457342 -1.615886 -3.8385392e-06 1.3829344e-38
0.62531334 -1.6153708 -3.7948291e-06 1.3829344e-38
0.63501346 -1.6153719 -4.9769878e-06 1.3829344e-38
0.64471263 -1.6153709 -3.9736428e-06 1.3829344e-38
0.65544224 -1.6148565 -4.6968462e-06 1.3829344e-38
0.66502196 -1.615886 -4.0292739e-06 1.3829344e-38
0.67483723 -1.6148564 -4.5061111e-06 1.3829344e-38
0.68442494 -1.6158857 -3.7431716e-06 1.3829344e-38
0.69515067 -1.6153713 -4.609426e-06 1.3829344e-38
0.70586908 -1.6148558 -3.8385392e-06 1.3829344e-38
0.71547049 -1.6158867 -4.6730042e-06 1.3829344e-38
0.72526407 -1.6148555 -3.6478043e-06 1.3829344e-38
0.73487365 -1.6158863 -4.3630598e-06 1.3829344e-38
0.74465925 -1.6148558 -3.8623812e-06 1.3829344e-38
0.75427687 -1.6158863 -4.4107437e-06 1.3829344e-38
0.76498717 -1.6153706 -3.6756198e-06 1.3829344e-38
0.77569139 -1.6148558 -3.8862227e-06 1.3829344e-38
0.78532171 -1.6158855 -3.695488e-06 1.3829344e-38
0.79508656 -1.614856 -4.1723251e-06 1.3829344e-38
0.80472499 -1.6158855 -3.695488e-06 1.3829344e-38
0.81448156 -1.614856 -3.9815905e-06 1.3829344e-38
0.82412827 -1.6158857 -3.8146973e-06 1.3829344e-38
0.83482414 -1.6153708 -3.8544335e-06 1.3829344e-38
0.84551352 -1.6148555 -3.7670136e-06 1.3829344e-38
0.85517341 -1.6158857 -3.9339066e-06 1.3829344e-38
0.86490905 -1.6148567 -4.7206877e-06 1.3829344e-38
0.87457645 -1.6158855 -3.6001206e-06 1.3829344e-38
0.88430405 -1.6148564 -4.6014784e-06 1.3829344e-38
0.89495939 -1.6153704 -3.6557515e-06 1.3829344e-38
0.90562212 -1.6158863 -4.4822691e-06 1.3829344e-38
0.91533554 -1.6148552 -3.4332274e-06 1.3829344e-38
0.92502511 -1.615886 -4.1246412e-06 1.3829344e-38
0.93473083 -1.6148555 -3.695488e-06 1.3829344e-38
0.94442832 -1.6158861 -4.2438505e-06 1.3829344e-38
0.95509881 -1.6153708 -3.8345656e-06 1.3829344e-38
0.96576321 -1.6148561 -4.1961671e-06 1.3829344e-38
0.97547311 -1.6158854 -3.4809113e-06 1.3829344e-38
0.98515826 -1.614856 -4.0292739e-06 1.3829344e-38
0.9948765 -1.6158855 -3.6239624e-06 1.3829344e-38
1.0045531 -1.6148558 -3.8623812e-06 1.3829344e-38
1.0142796 -1.6158857 -3.671646e-06 1.3829344e-38
1.0249357 -1.6153706 -3.6756198e-06 1.3829344e-38
1.035585 -1.6148554 -3.5524367e-06 1.3829344e-38
1.0453249 -1.6158857 -3.7431716e-06 1.3829344e-38
1.0549803 -1.6148555 -3.7670136e-06 1.3829344e-38
1.0647278 -1.6158851 -3.3617021e-06 1.3829344e-38
1.0743752 -1.6148555 -3.5524367e-06 1.3829344e-38
1.0850706 -1.6153699 -3.139178e-06 1.3829344e-38
1.0957733 -1.6158857 -3.8862227e-06 1.3829344e-38
1.1054074 -1.6148555 -3.671646e-06 1.3829344e-38
1.1151768 -1.6158863 -4.3630598e-06 1.3829344e-38
1.1248022 -1.6148554 -3.4809113e-06 1.3829344e-38
1.1345799 -1.615886 -4.0769578e-06 1.3829344e-38
1.1441972 -1.6148552 -3.3617021e-06 1.3829344e-38
1.1549082 -1.6153712 -4.3312707e-06 1.3829344e-38
1.1656244 -1.6158854 -3.3617021e-06 1.3829344e-38
1.1752297 -1.6148558 -3.8385392e-06 1.3829344e-38
1.1850278 -1.6158855 -3.4570694e-06 1.3829344e-38
1.1946245 -1.6148555 -3.6001206e-06 1.3829344e-38
1.2053457 -1.6153708 -3.8544335e-06 1.3829344e-38
1.215045 -1.6153704 -3.4868717e-06 1.3829344e-38
1.2247447 -1.6153703 -3.3974648e-06 1.3829344e-38
1.2354763 -1.6158855 -3.5762787e-06 1.3829344e-38
1.2450516 -1.6148554 -3.528595e-06 1.3829344e-38
1.2548796 -1.6158857 -3.695488e-06 1.3829344e-38
1.2616041 -1.6153693 -2.3245811e-06 1.3829344e-38
-1.2137066 -1.6076651 -1.7881393e-06 1.3829344e-38
-1.2059714 -1.6076651 -1.7881393e-06 1.3829344e-38
-1.1943685 -1.6076651 -1.7881393e-06 1.3829344e-38
-1.1846994 -1.6076651 -1.7881393e-06 1.3829344e-38
-1.1750304 -1.6076651 -1.7881393e-06 1.3829344e-38
-1.1300721 -1.6025573 -9.5367432e-07 1.3829344e-38
-1.1242828 -1.6025573 -9.5367432e-07 1.3829344e-38
-1.114634 -1.6025573 -9.5367432e-07 1.3829344e-38
-1.1049851 -1.6025573 -9.5367432e-07 1.3829344e-38
-1.0953363 -1.6025573 -9.5367432e-07 1.3829344e-38
-1.0856874 -1.6025572 -8.9406967e-07 1.3829344e-38
-1.0760385 -1.6025571 -8.3446503e-07 1.3829344e-38
-1.0644599 -1.6025571 -8.3446503e-07 1.3829344e-38
-1.0550054 -1.6056229 -2.4080277e-06 1.3829344e-38
-1.0452837 -1.6046009 -1.8835068e-06 1.3829344e-38
-1.0356834 -1.6056229 -2.4080277e-06 1.3829344e-38
-1.0250292 -1.605112 -2.1457672e-06 1.3829344e-38
-1.0143814 -1.6046009 -1.835823e-06 1.3829344e-38
-1.0047684 -1.6056229 -2.3126602e-06 1.3829344e-38
-0.99506748 -1.6046009 -1.6450882e-06 1.3829344e-38
-0.9854458 -1.6056219 -1.3589859e-06 1.3829344e-38
-0.97480184 -1.6051108 -8.9406967e-07 1.3829344e-38
-0.96514297 -1.6051108 -8.9406967e-07 1.3829344e-38
-0.9545753 -1.6076646 -1.1920929e-06 1.3829344e-38
-0.94490623 -1.6076646 -1.1920929e-06 1.3829344e-38
-0.93523717 -1.6076646 -1.1920929e-06 1.3829344e-38
-0.9255681 -1.6076646 -1.1920929e-06 1.3829344e-38
-0.91589898 -1.6076645 -9.5367432e-07 1.3829344e-38
-0.9042961 -1.6076645 -9.5367432e-07 1.3829344e-38
-0.89462703 -1.6076645 -9.5367432e-07 1.3829344e-38
-0.88495797 -1.6076645 -9.5367432e-07 1.3829344e-38
-0.8752889 -1.6076645 -9.5367432e-07 1.3829344e-38
-0.86561984 -1.6076645 -9.5367432e-07 1.3829344e-38
-0.8535592 -1.606388 -1.2814999e-06 1.3829344e-38
-0.8444193 -1.6046007 -1.6927719e-06 1.3829344e-38
-0.83473444 -1.6056219 -1.4066696e-06 1.3829344e-38
-0.82510537 -1.6046007 -1.6927719e-06 1.3829344e-38
-0.81541252 -1.6056219 -1.4066696e-06 1.3829344e-38
-0.80587155 -1.6025585 -2.2649765e-06 1.3829344e-38
-0.79429293 -1.6025585 -2.1855037e-06 1.3829344e-38
-0.78355289 -1.6051112 -1.4305115e-06 1.3829344e-38
-0.77473056 -1.6076641 -7.7486038e-07 1.3829344e-38
-0.76506144 -1.6076641 -7.1525574e-07 1.3829344e-38
-0.75539237 -1.6076641 -7.1525574e-07 1.3829344e-38
-0.74572331 -1.6076641 -7.1525574e-07 1.3829344e-38
-0.73412043 -1.6076641 -7.1525574e-07 1.3829344e-38
-0.72445136 -1.6076641 -7.1525574e-07 1.3829344e-38
-0.7147823 -1.6076641 -7.1525574e-07 1.3829344e-38
-0.70535982 -1.6046016 -2.5749207e-06 1.3829344e-38
-0.69469482 -1.6051121 -2.2053719e-06 1.3829344e-38
-0.68503588 -1.6051121 -2.2053719e-06 1.3829344e-38
-0.67537689 -1.6051121 -2.2053719e-06 1.3829344e-38
-0.66470146 -1.6056225 -1.8835068e-06 1.3829344e-38
-0.65514368 -1.6046016 -2.527237e-06 1.3829344e-38
-0.64537948 -1.6056223 -1.835823e-06 1.3829344e-38
-0.63583046 -1.6046031 -3.9100646e-06 1.3829344e-38
-0.62515062 -1.6051129 -2.9603641e-06 1.3829344e-38
-0.61446476 -1.6056235 -2.7894973e-06 1.3829344e-38
-0.60583067 -1.6051128 -2.9206276e-06 1.3829344e-38
-0.5948866 -1.6076657 -2.2649765e-06 1.3829344e-38
-0.58521754 -1.6076657 -2.2649765e-06 1.3829344e-38
-0.57554847 -1.6076657 -2.2649765e-06 1.3829344e-38
-0.56394559 -1.6076657 -2.2649765e-06 1.3829344e-38
0.56483382 -1.6051127 -2.7815502e-06 1.3829344e-38
0.57553512 -1.6046021 -3.0517579e-06 1.3829344e-38
0.58504122 -1.605623 -2.5749207e-06 1.3829344e-38
0.59484881 -1.6046019 -2.7894973e-06 1.3829344e-38
0.60436308 -1.6056226 -2.2172928e-06 1.3829344e-38
0.61506063 -1.6051131 -3.317992e-06 1.3829344e-38
0.62575102 -1.6046016 -2.6464463e-06 1.3829344e-38
0.63527882 -1.6056242 -3.8385392e-06 1.3829344e-38
0.64506525 -1.6046025 -3.4332274e-06 1.3829344e-38
0.65460062 -1.605624 -3.4093857e-06 1.3829344e-38
0.66528702 -1.6051127 -2.8610229e-06 1.3829344e-38
0.67494631 -1.6051133 -3.4868717e-06 1.3829344e-38
0.68460488 -1.6051126 -2.6424725e-06 1.3829344e-38
0.69528115 -1.6046021 -3.0517579e-06 1.3829344e-38
0.70483744 -1.6056232 -2.670288e-06 1.3829344e-38
0.71459496 -1.6046019 -2.7179717e-06 1.3829344e-38
0.72415912 -1.6056226 -2.1457672e-06 1.3829344e-38
0.73483139 -1.6051124 -2.4636586e-06 1.3829344e-38
0.74549705 -1.6046016 -2.5033951e-06 1.3829344e-38
0.75507456 -1.605623 -2.6464463e-06 1.3829344e-38
0.7648114 -1.6046025 -3.4332274e-06 1.3829344e-38
0.77439654 -1.605623 -2.5987624e-06 1.3829344e-38
0.78505832 -1.6051129 -3.059705e-06 1.3829344e-38
0.79571331 -1.6046019 -2.7894973e-06 1.3829344e-38
0.80531168 -1.605623 -2.5749207e-06 1.3829344e-38
0.81502706 -1.6046016 -2.5033951e-06 1.3829344e-38
0.82463372 -1.6056232 -2.6226044e-06 1.3829344e-38
0.83434087 -1.6046013 -2.3365021e-06 1.3829344e-38
0.84494168 -1.6051126 -2.6226044e-06 1.3829344e-38
0.85554868 -1.6056229 -2.2888185e-06 1.3829344e-38
0.86524332 -1.6046019 -2.7656556e-06 1.3829344e-38
0.87487078 -1.6056232 -2.670288e-06 1.3829344e-38
0.88455743 -1.6046025 -3.3855438e-06 1.3829344e-38
0.8941927 -1.6056232 -2.5510788e-06 1.3829344e-38
0.90482944 -1.6051127 -2.9206276e-06 1.3829344e-38
0.91545951 -1.6046022 -3.0994415e-06 1.3829344e-38
0.92510766 -1.6056226 -2.2411346e-06 1.3829344e-38
0.93477333 -1.6046019 -2.9325486e-06 1.3829344e-38
0.94442958 -1.6056226 -2.1696092e-06 1.3829344e-38
0.95505571 -1.6051122 -2.4437904e-06 1.3829344e-38
0.96567518 -1.6046013 -2.2649765e-06 1.3829344e-38
0.97534484 -1.6056229 -2.2411346e-06 1.3829344e-38
0.98498887 -1.6046011 -2.002716e-06 1.3829344e-38
0.99562418 -1.6051136 -3.8146973e-06 1.3829344e-38
1.0043031 -1.6046016 -2.527237e-06 1.3829344e-38
1.0149395 -1.6051129 -3.0398369e-06 1.3829344e-38
1.025582 -1.6056229 -2.2172928e-06 1.3829344e-38
1.0352056 -1.6046021 -3.0279159e-06 1.3829344e-38
1.0449035 -1.6056225 -1.835823e-06 1.3829344e-38
1.0545195 -1.6046022 -3.2663345e-06 1.3829344e-38
1.0651655 -1.605112 -1.9272168e-06 1.3829344e-38
1.075819 -1.6056229 -2.2649765e-06 1.3829344e-38
1.0854216 -1.6046021 -2.9563903e-06 1.3829344e-38
1.0951407 -1.6056223 -1.9073486e-06 1.3829344e-38
1.1051695 -1.603837 -3.9339066e-06 1.3829344e-38
1.1144633 -1.6056235 -2.9325486e-06 1.3829344e-38
1.1240494 -1.6046021 -2.8848649e-06 1.3829344e-38
1.1347103 -1.6051124 -2.5232632e-06 1.3829344e-38
1.1453786 -1.6056236 -3.0517579e-06 1.3829344e-38
1.1549511 -1.6046013 -2.2172928e-06 1.3829344e-38
1.1647003 -1.605623 -2.6226044e-06 1.3829344e-38
1.1742651 -1.6046015 -2.4318695e-06 1.3829344e-38
1.184937 -1.6051124 -2.3841858e-06 1.3829344e-38
1.1956146 -1.6056219 -1.4543533e-06 1.3829344e-38
1.2051678 -1.6046021 -2.9325486e-06 1.3829344e-38
1.213913 -1.6051111 -1.3709068e-06 1.3829344e-38
1.2244813 -1.6046016 -2.69413e-06 1.3829344e-38
1.2351637 -1.6051124 -2.6027362e-06 1.3829344e-38
1.2458527 -1.605623 -2.69413e-06 1.3829344e-38
1.2544833 -1.6051121 -2.1755695e-06 1.3829344e-38
-1.2046981 -1.5974714 -8.3446503e-07 1.3829344e-38
-1.1950703 -1.5974727 -2.1457672e-06 1.3829344e-38
-1.1854415 -1.5974725 -2.0265579e-06 1.3829344e-38
-1.1738871 -1.5974725 -2.0265579e-06 1.3829344e-38
-1.1642584 -1.5974725 -2.0265579e-06 1.3829344e-38
-1.1546297 -1.5974725 -2.0265579e-06 1.3829344e-38
-1.1450009 -1.5974725 -2.0265579e-06 1.3829344e-38
-1.1347699 -1.5962065 -2.2053719e-06 1.3829344e-38
-1.1254631 -1.5944343 -2.4557114e-06 1.3829344e-38
-1.1168538 -1.5949405 -2.2649765e-06 1.3829344e-38
-1.1060587 -1.5924087 -2.7418137e-06 1.3829344e-38
-1.0945282 -1.5924085 -2.5828679e-06 1.3829344e-38
-1.0849187 -1.5924075 -1.5497208e-06 1.3829344e-38
-1.0753094 -1.5924066 -5.9604645e-07 1.3829344e-38
-1.0657008 -1.5924065 -5.9604645e-07 1.3829344e-38
-1.0560921 -1.5924066 -5.9604645e-07 1.3829344e-38
-1.0445617 -1.5924066 -5.9604645e-07 1.3829344e-38
-1.0349531 -1.5924065 -5.9604645e-07 1.3829344e-38
-1.0253444 -1.5924066 -5.9604645e-07 1.3829344e-38
-1.0157356 -1.5924064 -3.5762787e-07 1.3829344e-38
-1.006127 -1.5924064 -3.5762787e-07 1.3829344e-38
-0.99459648 -1.5924064 -3.5762787e-07 1.3829344e-38
-0.98498785 -1.5924064 -3.5762787e-07 1.3829344e-38
-0.97537917 -1.5924064 -3.5762787e-07 1.3829344e-38
-0.96384877 -1.5924064 -3.5762787e-07 1.3829344e-38
-0.95424008 -1.5924064 -3.5762787e-07 1.3829344e-38
-0.9446314 -1.5924063 -3.5762787e-07 1.3829344e-38
-0.93502271 -1.5924062 -3.5762787e-07 1.3829344e-38
-0.92494553 -1.5936726 -6.2584877e-07 1.3829344e-38
-0.91486025 -1.5949391 -8.9406967e-07 1.3829344e-38
-0.90428257 -1.5974718 -1.4305115e-06 1.3829344e-38
-0.89465368 -1.5974717 -1.3113022e-06 1.3829344e-38
-0.88502502 -1.5974717 -1.3113022e-06 1.3829344e-38
-0.87539625 -1.5974717 -1.3113022e-06 1.3829344e-38
-0.86576754 -1.5974717 -1.3113022e-06 1.3829344e-38
-0.85425222 -1.5954462 -1.5974044e-06 1.3829344e-38
-0.84465516 -1.5944334 -1.7404557e-06 1.3829344e-38
-0.83501083 -1.5954462 -1.5974044e-06 1.3829344e-38
-0.82542169 -1.5944335 -1.7404557e-06 1.3829344e-38
-0.81482625 -1.5949398 -1.5497208e-06 1.3829344e-38
-0.80422461 -1.5954462 -1.4543533e-06 1.3829344e-38
-0.79464829 -1.5944334 -1.5497208e-06 1.3829344e-38
-0.7849831 -1.5954461 -1.3589859e-06 1.3829344e-38
-0.77541482 -1.5944333 -1.5020371e-06 1.3829344e-38
-0.76480907 -1.5949397 -1.4305115e-06 1.3829344e-38
-0.75556237 -1.5940957 -1.5497208e-06 1.3829344e-38
-0.74477196 -1.5924077 -1.7881393e-06 1.3829344e-38
-0.73516333 -1.5924077 -1.7881393e-06 1.3829344e-38
-0.64238197 -1.5974733 -2.7418137e-06 1.3829344e-38
-0.63467902 -1.5974733 -2.7418137e-06 1.3829344e-38
-0.62505031 -1.5974733 -2.7418137e-06 1.3829344e-38
-0.61542153 -1.5974733 -2.7418137e-06 1.3829344e-38
-0.60386705 -1.5974731 -2.6623409e-06 1.3829344e-38
-0.59423828 -1.597473 -2.5033951e-06 1.3829344e-38
-0.58460957 -1.597473 -2.5033951e-06 1.3829344e-38
-0.57435912 -1.5949402 -1.9669533e-06 1.3829344e-38
-0.56474036 -1.5949402 -1.9669533e-06 1.3829344e-38
0.55928314 -1.5974741 -3.695488e-06 1.3829344e-38
0.56553501 -1.5944353 -3.6478043e-06 1.3829344e-38
0.57499796 -1.5954494 -4.9352648e-06 1.3829344e-38
0.58476853 -1.5944358 -4.1961671e-06 1.3829344e-38
0.59423906 -1.5954486 -4.1484832e-06 1.3829344e-38
0.60489392 -1.5949427 -4.6888986e-06 1.3829344e-38
0.61554217 -1.5944363 -4.6253203e-06 1.3829344e-38
0.62502563 -1.5954493 -4.8160555e-06 1.3829344e-38
0.63477564 -1.5944364 -4.7445296e-06 1.3829344e-38
0.64426684 -1.595449 -4.3630598e-06 1.3829344e-38
0.6549111 -1.5949425 -4.3710074e-06 1.3829344e-38
0.66554904 -1.594436 -4.4822691e-06 1.3829344e-38
0.675053 -1.5954484 -3.8862227e-06 1.3829344e-38
0.68478251 -1.5944362 -4.6014784e-06 1.3829344e-38
0.69429469 -1.5954492 -4.6014784e-06 1.3829344e-38
0.70492834 -1.5949422 -4.0928521e-06 1.3829344e-38
0.71555579 -1.594436 -4.3630598e-06 1.3829344e-38
0.72508091 -1.5954491 -4.4822691e-06 1.3829344e-38
0.73478901 -1.5944353 -3.695488e-06 1.3829344e-38
0.7443223 -1.5954489 -4.3869018e-06 1.3829344e-38
0.75494546 -1.594942 -3.8941703e-06 1.3829344e-38
0.76556283 -1.5944362 -4.6491623e-06 1.3829344e-38
0.77510822 -1.5954481 -3.6239624e-06 1.3829344e-38
0.78479612 -1.5944359 -4.3630598e-06 1.3829344e-38
0.79434955 -1.595448 -3.5047531e-06 1.3829344e-38
0.80496329 -1.594943 -4.7882399e-06 1.3829344e-38
0.81556904 -1.594435 -3.2663345e-06 1.3829344e-38
0.82513648 -1.5954492 -4.553795e-06 1.3829344e-38
0.8348031 -1.5944362 -4.6014784e-06 1.3829344e-38
0.84437764 -1.5954487 -4.1484832e-06 1.3829344e-38
0.85498023 -1.5949422 -4.2319298e-06 1.3829344e-38
0.86557615 -1.5944356 -4.0054319e-06 1.3829344e-38
0.87516421 -1.5954493 -4.8637389e-06 1.3829344e-38
0.88480967 -1.5944357 -4.1007997e-06 1.3829344e-38
0.89440548 -1.5954489 -4.3153764e-06 1.3829344e-38
0.90499717 -1.5949417 -3.695488e-06 1.3829344e-38
0.91558361 -1.5944364 -4.8875809e-06 1.3829344e-38
0.92519128 -1.5954481 -3.528595e-06 1.3829344e-38
0.93481696 -1.5944363 -4.6491623e-06 1.3829344e-38
0.94443285 -1.5954484 -3.8385392e-06 1.3829344e-38
0.95501488 -1.5949425 -4.3710074e-06 1.3829344e-38
0.96559 -1.5944357 -4.0054319e-06 1.3829344e-38
0.97521937 -1.5954487 -4.1961671e-06 1.3829344e-38
0.98482323 -1.5944355 -3.7193299e-06 1.3829344e-38
0.99446094 -1.5954491 -4.4345857e-06 1.3829344e-38
1.0050317 -1.5949417 -3.7352245e-06 1.3829344e-38
1.0155966 -1.5944355 -3.9339066e-06 1.3829344e-38
1.0252469 -1.5954485 -4.0292739e-06 1.3829344e-38
1.0348299 -1.5944353 -3.695488e-06 1.3829344e-38
1.0444881 -1.595448 -3.5047531e-06 1.3829344e-38
1.0550492 -1.5949422 -4.1127205e-06 1.3829344e-38
1.0656035 -1.5944355 -3.671646e-06 1.3829344e-38
1.0752745 -1.5954485 -3.8623812e-06 1.3829344e-38
1.0848373 -1.5944363 -4.6253203e-06 1.3829344e-38
1.0945156 -1.5954481 -3.3617021e-06 1.3829344e-38
1.1040713 -1.5944366 -5.1259995e-06 1.3829344e-38
1.1146828 -1.5949416 -3.516674e-06 1.3829344e-38
1.1253024 -1.5954487 -4.1246412e-06 1.3829344e-38
1.1348441 -1.5944357 -4.1723251e-06 1.3829344e-38
1.1445439 -1.5954486 -4.0769578e-06 1.3829344e-38
1.1540768 -1.5944351 -3.4570694e-06 1.3829344e-38
1.1647006 -1.5949422 -4.1723251e-06 1.3829344e-38
1.1753299 -1.5954485 -3.9100646e-06 1.3829344e-38
1.1848507 -1.5944356 -3.9815905e-06 1.3829344e-38
1.1945713 -1.5954483 -3.7908553e-06 1.3829344e-38
1.2040838 -1.5944353 -3.695488e-06 1.3829344e-38
1.2147177 -1.5949421 -3.9339066e-06 1.3829344e-38
1.2253573 -1.5954479 -3.3617021e-06 1.3829344e-38
