# .PCD v0.7 - Point Cloud Data file format
VERSION 0.7
FIELDS x y z rgb
SIZE 4 4 4 4
TYPE F F F F
COUNT 1 1 1 1
WIDTH 1009
HEIGHT 1
VIEWPOINT 0 0 0 1 0 0 0
POINTS 1009
DATA ascii
0.54979324 -0.29776481 0.63190091 2.8599577e-39
0.5511108 -0.29449269 0.63547176 2.8599577e-39
0.35373583 -0.28601274 0.63594776 1.0879084e-38
0.55248868 -0.28513774 0.63498491 2.8599577e-39
0.5539369 -0.27535877 0.63485885 4.0581281e-39
0.53680468 -0.26414621 0.63235831 1.1524094e-38
0.55557048 -0.26521963 0.63516831 1.0879094e-38
0.53477454 -0.25489774 0.6346339 1.0878723e-38
0.55722308 -0.25486866 0.63509101 1.1616651e-38
0.55835968 -0.24523982 0.63507354 1.1617009e-38
0.55933112 -0.23558484 0.6342656 1.1616651e-38
0.56009996 -0.2317069 0.6389637 1.1801041e-38
0.55997461 -0.22854413 0.63159323 1.1801041e-38
0.5606156 -0.22480692 0.63495046 1.1708845e-38
0.37382248 -0.2148746 0.63995022 1.0879084e-38
0.56210631 -0.21484588 0.63538229 1.1708845e-38
0.56374192 -0.2048623 0.63524216 1.060251e-38
0.56595838 -0.19508058 0.6347363 3.6893498e-39
0.56855243 -0.18538435 0.63498843 2.8595975e-39
0.57016075 -0.18059516 0.63698637 2.8599577e-39
0.57223761 -0.17481442 0.63521093 4.1405819e-39
0.57528257 -0.16738273 0.63522905 6.0615183e-39
0.5698275 -0.12524456 0.63604498 5.2411407e-39
0.56633902 -0.11501896 0.63650465 1.0879084e-38
0.5781303 -0.063230433 0.6351648 1.1149189e-38
0.58117568 -0.068462975 0.63524455 1.1149189e-38
0.57324642 -0.054499649 0.63524139 1.0503458e-38
0.58522731 -0.05726853 0.63084447 8.8165678e-39
0.59627587 -0.051012211 0.63188165 1.0879084e-38
0.5673902 -0.043862365 0.63484561 1.0410904e-38
0.57013112 -0.048572887 0.6370275 1.0034918e-38
0.59909803 -0.043623507 0.63144058 1.0879084e-38
0.56252122 -0.034556165 0.63443542 6.9927932e-39
0.55727643 -0.02464216 0.63483685 6.6204066e-39
0.56005049 -0.029832628 0.63834816 7.626651e-39
0.5499537 -0.011556422 0.6344294 6.8037188e-39
0.55254656 -0.016083915 0.63480145 6.6204066e-39
0.54654795 -0.005517798 0.63478613 6.8033601e-39
0.5389663 0.0083956691 0.63489503 6.9863136e-39
0.54188329 0.0030738015 0.63493836 6.8948369e-39
0.53471822 0.015465118 0.6350078 8.3696208e-39
0.51284462 0.023837017 0.63249511 1.0786889e-38
0.52854246 0.027199177 0.63433528 1.0495895e-38
0.5310412 0.022657175 0.63542885 9.9373207e-39
0.51333547 0.033805646 0.63464588 1.0786887e-38
0.5251146 0.034724392 0.63519269 1.0123152e-38
0.5230903 0.044065118 0.63509148 1.0589172e-38
0.52937746 0.050160535 0.63469523 1.1523732e-38
0.5357601 0.054581713 0.63498539 9.7723766e-39
0.54190874 0.058581468 0.63470644 9.0344515e-39
0.81812078 0.055957939 0.63236558 1.0879084e-38
0.5459798 0.061029647 0.63487619 8.942616e-39
0.55491656 0.066379741 0.6344347 9.6805411e-39
0.5642103 0.071639888 0.63543284 1.1616288e-38
0.62402678 0.089025036 0.63273406 1.1156031e-38
0.61683285 0.095223218 0.63080937 1.0786889e-38
0.6459446 0.10832913 0.63511795 1.078761e-38
0.6354304 0.11561515 0.63507748 9.5840379e-39
0.64166212 0.11077949 0.63522059 1.1524814e-38
0.62742752 0.12588477 0.63485545 3.1351012e-39
0.63077939 0.12106126 0.63561219 3.13546e-39
0.62293673 0.13448465 0.63508219 3.0436259e-39
0.61961639 0.14575951 0.63340437 9.6776755e-39
0.62062776 0.14390227 0.63592899 5.9902497e-39
0.61987865 0.15088326 0.63444024 1.1801041e-38
0.62318701 0.15276906 0.63502175 1.1339342e-38
0.45908037 0.19963151 0.63778198 5.4395464e-39
0.43516403 0.20643015 0.63804317 8.8522238e-39
0.44870657 0.20832689 0.63561821 5.0696806e-39
0.45397604 0.20325933 0.6349631 5.1615119e-39
0.44443101 0.21499021 0.63498133 4.884925e-39
0.43696067 0.22568439 0.63492125 4.884925e-39
0.44067538 0.2206234 0.63507068 5.0696792e-39
0.38491964 0.23772615 0.6311596 1.0694693e-38
0.42942536 0.2379117 0.63451445 4.8849264e-39
0.43175817 0.23324366 0.63517785 4.9774822e-39
0.61829698 0.2393918 0.63094544 9.6908211e-39
0.62363774 0.23917289 0.63435841 9.3213281e-39
0.37606484 0.24146399 0.63184965 1.0694693e-38
0.42803496 0.24394798 0.63579816 5.2551551e-39
0.59576881 0.24486874 0.63648087 8.9518365e-39
0.60576838 0.24617252 0.63505673 8.3064685e-39
0.61399072 0.24127483 0.63396633 9.5064312e-39
0.43077421 0.25290677 0.63709718 5.9930761e-39
0.59715784 0.25675079 0.63479781 8.3064685e-39
0.60134512 0.25184375 0.63495028 8.3064685e-39
0.58737236 0.26713955 0.63496053 8.3064685e-39
0.59219545 0.26205912 0.63511837 8.3064685e-39
0.57787341 0.2773762 0.63508934 8.857864e-39
0.58245653 0.27242637 0.63530636 8.3064685e-39
0.56835049 0.28789508 0.63519162 8.4901493e-39
0.57276171 0.28283551 0.63487744 8.9500653e-39
0.55908298 0.29880372 0.6355626 9.7777002e-39
0.56340319 0.29380992 0.63528293 8.4901479e-39
0.55486757 0.30466348 0.63520885 9.0419036e-39
0.54723912 0.31600192 0.63547081 8.3064685e-39
0.55181497 0.31113067 0.63512868 8.4901507e-39
0.54342705 0.32355571 0.63483322 7.1965462e-39
0.53783935 0.33044484 0.63280743 1.0051447e-38
0.27831677 0.56107211 0.63599932 4.1326169e-39
0.28487319 0.56108576 0.63477659 4.1326169e-39
0.2949892 0.56110656 0.635207 4.1326169e-39
0.30067736 0.56111842 0.6354143 4.1326169e-39
0.36845255 0.71916538 0.63582242 1.0602497e-38
0.37174329 0.72574216 0.63140959 1.0602497e-38
0.27657846 -0.5589332 0.6456368 1.1164145e-41
0.28498626 -0.55891573 0.64495164 1.1164145e-41
0.29493913 -0.55889517 0.64496309 1.1164145e-41
0.30037552 -0.55888385 0.64591318 1.1164145e-41
0.59139663 -0.43219772 0.64116031 1.097128e-38
0.54843414 -0.33150664 0.64093 2.4908052e-39
0.55017513 -0.33521122 0.64233655 1.4762651e-39
0.54615748 -0.32369974 0.64461982 2.9521575e-39
0.54740018 -0.31501088 0.64500582 2.8599577e-39
0.54936206 -0.30736524 0.64366239 2.8599577e-39
0.5512014 -0.30380043 0.64615685 2.8599563e-39
0.55259728 -0.29536077 0.64506477 2.8599577e-39
0.55397099 -0.28494164 0.64486343 2.8599577e-39
0.55526859 -0.27504739 0.64490074 9.8653121e-39
0.55687451 -0.26512215 0.64532405 1.1708845e-38
0.55845863 -0.25509021 0.64528155 1.1708845e-38
0.55946958 -0.24607691 0.64387035 1.1708845e-38
0.56042486 -0.24214703 0.64763105 1.1708485e-38
0.55976021 -0.23851547 0.64119506 1.1801041e-38
0.56077868 -0.23452863 0.64568144 1.1708845e-38
0.56151003 -0.2246995 0.64497048 1.1801041e-38
0.37746242 -0.21479301 0.64282012 1.0879084e-38
0.56271428 -0.21514767 0.64535397 1.1801041e-38
0.56451869 -0.20508511 0.645037 1.1708846e-38
0.56685883 -0.19495916 0.64442497 5.9938566e-39
0.5690276 -0.18618663 0.64482933 2.8599577e-39
0.57075506 -0.18164445 0.6458382 2.8599577e-39
0.57340688 -0.17508093 0.64502561 2.8595975e-39
0.5765717 -0.16776668 0.64454991 3.2258507e-39
0.58274734 -0.16746965 0.64347661 3.5057068e-39
0.66917098 -0.10638152 0.64665771 1.0879084e-38
0.7296474 -0.10130957 0.64385968 1.0879084e-38
0.72330475 -0.09516827 0.64355338 1.0879084e-38
0.83883387 -0.094750203 0.64706928 1.0879084e-38
0.72207236 -0.085510612 0.64802361 1.0879084e-38
0.843467 -0.088383131 0.64554465 1.0879084e-38
0.58591324 -0.070516072 0.648794 1.1985793e-38
0.57863492 -0.062907211 0.64458072 9.0920743e-39
0.58215147 -0.067303382 0.64654726 9.7385241e-39
0.57406688 -0.055367298 0.64549553 7.1635288e-39
0.56796438 -0.044512726 0.6453436 6.6121557e-39
0.57062149 -0.049371701 0.64586461 7.8978527e-39
0.56301767 -0.035436455 0.64519835 7.2550042e-39
0.55738711 -0.025253832 0.64526057 8.6325366e-39
0.54958069 -0.011290076 0.64450467 8.6325366e-39
0.55255771 -0.016100604 0.64498925 8.5410599e-39
0.54621947 -0.0053915251 0.64522398 8.7243721e-39
0.53866649 0.0083221057 0.64474773 8.7243721e-39
0.54183513 0.0025301655 0.64516336 8.7243721e-39
0.53458846 0.015707133 0.64493924 8.7243721e-39
0.52855438 0.027001845 0.64548063 8.7247323e-39
0.53106999 0.022199726 0.64495182 8.7247323e-39
0.52459043 0.03485325 0.6454072 8.7250924e-39
0.53019655 0.031874537 0.64515901 8.7243721e-39
0.52468485 0.045311797 0.64542347 1.0118831e-38
0.53094721 0.04991902 0.64750767 9.3747834e-39
0.52850121 0.05002287 0.64009714 1.1615928e-38
0.53521341 0.053887688 0.64584345 9.662533e-39
0.54249138 0.058842108 0.64528328 9.1136823e-39
0.56427521 0.058476135 0.6441797 1.0786889e-38
0.54694974 0.061388999 0.64406711 9.1165633e-39
0.55495131 0.065726906 0.64456457 9.4828249e-39
0.56235057 0.068709612 0.64609432 9.9369605e-39
0.56701839 0.071107991 0.64390337 1.0496617e-38
0.57206178 0.072360381 0.64666075 9.4702202e-39
0.64748806 0.1080263 0.6449703 1.078761e-38
0.635598 0.11589109 0.64479226 9.4925541e-39
0.64177781 0.110702 0.64584607 1.1432618e-38
0.62738752 0.12618995 0.64493823 2.9467121e-39
0.63109446 0.12105612 0.644216 2.8552395e-39
0.62285745 0.13515756 0.64483196 2.7623152e-39
0.62084281 0.14537039 0.64463186 5.5281603e-39
0.62038344 0.1513816 0.64506251 1.1801041e-38
0.43011585 0.19956894 0.64040655 8.2086677e-39
0.46231866 0.19907866 0.64505184 9.4061235e-39
0.48986712 0.19561172 0.64613122 1.0786889e-38
0.49088982 0.19462372 0.6463123 1.0786889e-38
0.44904119 0.20835781 0.64480066 6.1821757e-39
0.45463413 0.20353517 0.64419502 6.3669271e-39
0.46108189 0.2002956 0.64569801 6.2747315e-39
0.44468829 0.21498241 0.64510173 6.1821757e-39
0.43696222 0.2259647 0.64521945 6.1821757e-39
0.44057706 0.22094835 0.6456669 6.1821757e-39
0.42847657 0.23806648 0.64506465 6.4584011e-39
0.43205929 0.23319824 0.64486676 6.0896185e-39
0.6161834 0.23830806 0.64661288 8.3064685e-39
0.62278545 0.23518571 0.64732999 8.213561e-39
0.42844245 0.2451072 0.64421266 6.1818142e-39
0.60695267 0.24626537 0.64485174 8.3064685e-39
0.61117631 0.24147491 0.64549828 8.3064685e-39
0.42979336 0.25123155 0.6442554 6.2736469e-39
0.43373936 0.25507841 0.64452034 6.54661e-39
0.59726834 0.25685108 0.6447885 8.3064685e-39
0.60201758 0.25212997 0.64504653 8.3064685e-39
0.58771759 0.26743329 0.64505565 8.3064685e-39
0.59271979 0.26236102 0.64456975 8.3064685e-39
0.57796955 0.27755469 0.64506578 9.9617369e-39
0.58262634 0.27268836 0.6451416 8.9500639e-39
0.56841463 0.2878378 0.64495057 9.3177828e-39
0.57293081 0.28287387 0.6447348 9.1337433e-39
0.55910027 0.29870144 0.64448696 9.593662e-39
0.56313199 0.29381078 0.64510053 8.6741888e-39
0.55407202 0.30505493 0.64504993 8.7660257e-39
0.54686195 0.31529716 0.64529675 8.3064685e-39
0.55019742 0.31057411 0.64366329 8.3064685e-39
0.54395533 0.32430026 0.64501482 5.346559e-39
0.54849833 0.33071843 0.64373666 3.5884003e-39
0.3064864 0.53965455 0.64248788 4.1326169e-39
0.31443039 0.53488863 0.64174491 4.1326169e-39
0.27663839 0.56106848 0.64550787 4.1326169e-39
0.28488263 0.56108564 0.64491916 4.1326169e-39
0.29494724 0.56110638 0.64512241 4.1326169e-39
0.30058074 0.56111807 0.64538324 4.1326169e-39
0.26690209 -0.56133878 0.65210432 1.1164145e-41
0.26928627 -0.55894804 0.65845776 1.1164145e-41
0.27520233 -0.55893576 0.65521872 1.1164145e-41
0.28503001 -0.5589155 0.65496945 1.1164145e-41
0.29497573 -0.55889475 0.65508389 1.1164145e-41
0.30026764 -0.55888385 0.65572155 1.1164145e-41
0.5482657 -0.33295539 0.65448695 2.9521575e-39
0.5475316 -0.32522103 0.65320492 3.4131497e-39
0.55035686 -0.32522121 0.65554982 3.0443545e-39
0.54906988 -0.315368 0.65414435 3.2287528e-39
0.55064368 -0.31486627 0.65372318 3.2287514e-39
0.54978096 -0.30968267 0.65898597 2.8599577e-39
0.55167025 -0.30469319 0.65451449 2.8599605e-39
0.55384469 -0.29473355 0.65534109 2.8599577e-39
0.55507475 -0.28515592 0.65497464 4.4269064e-39
0.55645448 -0.27482897 0.65506297 1.0509583e-38
0.55794269 -0.26465711 0.65508449 9.4950653e-39
0.55931395 -0.25562081 0.65475339 9.2184798e-39
0.56017756 -0.25138891 0.65701985 8.5731104e-39
0.55987227 -0.24855445 0.65076131 1.0878363e-38
0.56091624 -0.24474907 0.65559226 8.5723887e-39
0.55385453 -0.23696837 0.65595245 8.8475309e-39
0.56216151 -0.23470962 0.65495396 8.8489756e-39
0.56306541 -0.22524311 0.65478379 9.6790964e-39
0.56392461 -0.21500708 0.65476692 1.0970557e-38
0.56509298 -0.20532881 0.65554529 1.1524455e-38
0.56699932 -0.19504865 0.65493697 4.5187419e-39
0.56915098 -0.18791881 0.65530628 2.8599577e-39
0.57141745 -0.18335013 0.65509784 2.8599577e-39
0.5736956 -0.17525786 0.65476775 2.8599577e-39
0.57719642 -0.16771688 0.65580142 2.8599577e-39
0.58311969 -0.16398744 0.65833741 2.8599591e-39
0.67455286 -0.1042667 0.65209836 1.0879084e-38
0.5884037 -0.070459679 0.65228653 1.1430819e-38
0.57955766 -0.061327197 0.6556083 6.7958267e-39
0.58382469 -0.065612637 0.6535967 9.466979e-39
0.57446426 -0.055338979 0.65518355 6.6121557e-39
0.56811011 -0.044265792 0.65452498 6.4284847e-39
0.57064968 -0.049283534 0.65519077 5.8774718e-39
0.56295311 -0.035022914 0.65467119 8.5407011e-39
0.54542172 -0.024572765 0.65546072 1.0786887e-38
0.55682796 -0.024910437 0.65523231 8.7243721e-39
0.5494104 -0.011810842 0.65549457 8.7243721e-39
0.55211365 -0.016588507 0.65476924 8.7243721e-39
0.54581517 -0.005303273 0.65505147 8.7243721e-39
0.538831 0.0074350359 0.65529871 8.7243721e-39
0.54141068 0.0027351333 0.65482402 8.7243721e-39
0.53470588 0.014896388 0.6550653 8.7243721e-39
0.51959389 0.024743989 0.65140522 1.1708485e-38
0.52801633 0.026858544 0.65493101 8.7243721e-39
0.53064746 0.022112969 0.65524262 8.7243721e-39
0.52380401 0.034569103 0.65522331 8.7243721e-39
0.52456075 0.044130523 0.65513933 8.7258127e-39
0.53137112 0.049766432 0.65499306 8.7243721e-39
0.54507124 0.04482998 0.65088683 1.1524092e-38
0.55101991 0.044343613 0.65092766 1.023486e-38
0.5361957 0.053865794 0.6549505 8.7243721e-39
0.54251581 0.058943965 0.65518302 8.7247323e-39
0.54796797 0.062023211 0.65612173 8.7243721e-39
0.55355322 0.06470187 0.65390265 8.7258127e-39
0.56538534 0.068635345 0.65145302 8.9109242e-39
0.56979525 0.070462026 0.65098417 8.9094837e-39
0.57420725 0.072300218 0.65055436 8.9094837e-39
0.64565998 0.10903282 0.65504426 1.1063837e-38
0.65104592 0.10675732 0.65370786 1.0880166e-38
0.63576782 0.11588019 0.6549629 8.6663892e-39
0.64143533 0.11122521 0.65552247 1.1616649e-38
0.62694871 0.12577753 0.65500259 1.0137778e-39
0.6306107 0.12083035 0.65498108 0
0.62237602 0.1347072 0.65506899 1.1981662e-39
0.61980927 0.14723489 0.65541142 1.0879084e-38
0.62031436 0.14243002 0.6554352 2.6733131e-39
0.6197325 0.15057644 0.65603495 1.1708845e-38
0.62351823 0.15522531 0.65547109 1.2538606e-38
0.44543976 0.18309668 0.65462589 5.997067e-39
0.45807371 0.1995126 0.65588653 8.2086677e-39
0.46511626 0.19952308 0.65400481 7.007228e-39
0.44912905 0.20884222 0.65510005 6.5505967e-39
0.4529894 0.20382576 0.65602362 6.826822e-39
0.44490746 0.21523613 0.65493047 6.1821757e-39
0.43708453 0.22600682 0.65513313 6.2743699e-39
0.44070676 0.22120087 0.65536463 6.1821757e-39
0.46213534 0.22173941 0.65845495 6.6247114e-39
0.42946851 0.23877048 0.6518898 6.1821757e-39
0.43180498 0.23442009 0.65498698 6.826822e-39
0.61718881 0.23849203 0.65441048 9.2294898e-39
0.62250513 0.23635511 0.6557337 8.6752496e-39
0.42850545 0.24475272 0.65458822 6.4584011e-39
0.43340129 0.24054925 0.65707803 6.2729238e-39
0.60707974 0.24693115 0.65488988 8.3068272e-39
0.61312979 0.24189894 0.65554589 9.1372942e-39
0.42853117 0.25034535 0.65493554 6.1814498e-39
0.43227312 0.25342122 0.65597504 6.0863563e-39
0.59726322 0.25740466 0.65464711 8.3064685e-39
0.60216248 0.25228682 0.65495306 8.3064685e-39
0.58737147 0.26740626 0.65574795 8.4901493e-39
0.59222412 0.26249683 0.65475839 8.3064685e-39
0.60522938 0.26407561 0.65479887 8.7660257e-39
0.57768834 0.2775563 0.65491599 9.0419036e-39
0.58244687 0.27259251 0.65488881 9.9617369e-39
0.56797737 0.28786275 0.65496486 8.3983096e-39
0.57279444 0.2826148 0.65519351 8.3064685e-39
0.55890721 0.29883182 0.65471566 9.9617383e-39
0.56306547 0.29368955 0.65512645 9.1341034e-39
0.55408281 0.30500725 0.65518612 8.8582242e-39
0.53774679 0.31582284 0.65541816 9.8695371e-39
0.54624647 0.3151083 0.65526682 7.7522283e-39
0.55020267 0.3101145 0.65308869 8.3064685e-39
0.54556751 0.32510558 0.65494686 3.6820392e-39
0.54660994 0.33283475 0.65549546 3.8649844e-39
0.26930615 0.56105316 0.65840143 4.1326169e-39
0.2751942 0.56106544 0.65512359 4.1326169e-39
0.28497222 0.5610857 0.65506494 4.1326169e-39
0.29480574 0.56110603 0.65506166 4.1326169e-39
0.30059916 0.56111795 0.65487719 4.1326169e-39
0.26806402 -0.55895042 0.66565186 1.1164145e-41
0.27495173 -0.55893606 0.66499472 1.1164145e-41
0.2849541 -0.55891544 0.66493869 1.1164145e-41
0.29501265 -0.55889457 0.66508633 1.1164145e-41
0.30024913 -0.55888379 0.66357893 1.1164145e-41
0.54818195 -0.33242494 0.66508764 2.3060482e-39
0.54833108 -0.3253949 0.66548628 2.7677621e-39
0.54894441 -0.31472924 0.66586012 2.8599577e-39
0.55026853 -0.31047767 0.66885757 2.8599577e-39
0.54986811 -0.30952135 0.66283262 2.8599577e-39
0.55178481 -0.30462238 0.66514593 2.8599577e-39
0.55480617 -0.29488415 0.66508913 3.1365404e-39
0.55643231 -0.28475347 0.66479921 8.7589758e-39
0.55774009 -0.27508557 0.66504139 9.1244793e-39
0.55908734 -0.26528287 0.66475666 6.7245062e-39
0.56016135 -0.26096642 0.66887623 5.9836944e-39
0.55976403 -0.25869662 0.66219276 6.5408338e-39
0.56081915 -0.2541033 0.66519636 5.9844161e-39
0.56214541 -0.24493718 0.66516101 5.892219e-39
0.55809045 -0.23168294 0.66619641 1.0879091e-38
0.56342006 -0.23529159 0.66505569 6.0769704e-39
0.56477177 -0.22473551 0.66504246 6.539752e-39
0.56556833 -0.21489574 0.66468877 7.4638747e-39
0.56652373 -0.20447685 0.66528118 1.1247147e-38
0.56817204 -0.19505036 0.66462392 5.9938566e-39
0.56969124 -0.18866663 0.66630733 2.8599577e-39
0.57110286 -0.18404999 0.66502678 2.8599577e-39
0.57432306 -0.1747608 0.66509622 2.8599577e-39
0.57798159 -0.16777667 0.66559893 2.8599577e-39
0.583161 -0.1640286 0.66621393 2.9521547e-39
0.5934571 -0.16448438 0.66440403 3.2287486e-39
0.58779776 -0.071287021 0.66360343 1.2948805e-38
0.59088826 -0.0715148 0.66367018 1.2948805e-38
0.5777241 -0.063077688 0.66740215 6.7958267e-39
0.58169574 -0.068323433 0.66820717 9.5552132e-39
0.57285982 -0.054187935 0.6656549 6.4284847e-39
0.56757146 -0.044428073 0.66525358 7.5305107e-39
0.57019174 -0.048939347 0.66107875 7.8060172e-39
0.55962062 -0.030358706 0.6656577 8.7243721e-39
0.56243646 -0.035280321 0.66480058 8.7243721e-39
0.556467 -0.024697589 0.66504574 8.7243721e-39
0.54898953 -0.011448981 0.66457015 8.7243721e-39
0.5517416 -0.016324626 0.66483545 8.7243721e-39
0.545681 -0.0053041684 0.66510743 8.7243721e-39
0.53901082 0.0069499663 0.66521955 8.7243721e-39
0.54164368 0.0021457351 0.66470808 8.7243721e-39
0.53463072 0.014701627 0.66502672 8.7243721e-39
0.52802896 0.026142925 0.66502357 8.7243721e-39
0.53071916 0.021528177 0.66441143 8.7243721e-39
0.52400732 0.035546724 0.66577166 8.7243721e-39
0.52367872 0.043895394 0.66530132 8.7243721e-39
0.53053701 0.049577143 0.66281867 8.7243721e-39
0.53598219 0.054273188 0.66375047 8.7243721e-39
0.54296869 0.05862847 0.66418618 8.8216096e-39
0.54743779 0.06189825 0.66477585 8.7243721e-39
0.55425972 0.065683067 0.66467953 8.7243721e-39
0.56200171 0.069178022 0.66297776 8.7243721e-39
0.56698519 0.071451992 0.66522533 8.7243721e-39
0.57187176 0.073422328 0.66153872 8.7243721e-39
0.64727348 0.10830478 0.66540927 1.1064197e-38
0.63502574 0.11624703 0.66525221 8.5731132e-39
0.64139062 0.11158016 0.66528922 1.1616649e-38
0.62666529 0.12556472 0.66518897 2.0257633e-39
0.63081312 0.12030155 0.66261333 1.8439126e-40
0.62172896 0.13555023 0.66521388 2.7615263e-39
0.61978948 0.14765018 0.66382813 9.7723766e-39
0.62020129 0.14416434 0.66723841 5.9862377e-39
0.61954039 0.15122744 0.66333812 1.1801041e-38
0.62253249 0.15442428 0.6654681 1.1985432e-38
0.63017619 0.15914315 0.66469771 1.1156391e-38
0.43701246 0.18430652 0.66808748 6.2747315e-39
0.44225228 0.1870345 0.66166389 5.7194039e-39
0.44956538 0.19820009 0.66437846 2.4918674e-39
0.45923099 0.19954415 0.66490877 8.5763642e-39
0.46417645 0.19897728 0.66806662 8.4830812e-39
0.44915059 0.20870478 0.66533113 7.5640213e-39
0.45367646 0.20367594 0.6650812 6.7346264e-39
0.44485998 0.21510062 0.66498393 5.4453393e-39
0.43709728 0.22606771 0.66513073 3.8787465e-39
0.44077945 0.22103687 0.66564733 2.5865812e-39
0.46226659 0.22432004 0.66543418 4.1513719e-39
0.42937878 0.23855962 0.66571093 7.8398894e-39
0.43175647 0.23357327 0.66533351 7.2874372e-39
0.61742246 0.23927565 0.66597998 8.3064685e-39
0.62235028 0.23666644 0.66565537 8.4901479e-39
0.42881793 0.24471185 0.66569656 6.5505953e-39
0.43045056 0.24869645 0.6654371 5.7197486e-39
0.60716635 0.24736808 0.66520548 8.3064685e-39
0.61289686 0.24249636 0.66569406 8.3064685e-39
0.43308067 0.25391388 0.6644116 5.4409855e-39
0.59734893 0.25721201 0.66481984 8.3064685e-39
0.60216385 0.25217566 0.66510069 8.3064685e-39
0.58719069 0.26751766 0.66535634 9.1341048e-39
0.59225142 0.26244459 0.66476059 8.3064685e-39
0.57758993 0.27763817 0.66485459 8.9500653e-39
0.58234316 0.27258378 0.66514093 8.7660257e-39
0.56793892 0.28813192 0.66455233 8.3983068e-39
0.5725497 0.28311116 0.66512203 8.3064685e-39
0.5589 0.29862392 0.6650036 9.3177828e-39
0.56295294 0.29370973 0.66479504 9.3177814e-39
0.57825816 0.29081601 0.66944075 8.6741888e-39
0.54983807 0.30959684 0.66942954 8.3064685e-39
0.55398864 0.30472586 0.66510069 8.3064699e-39
0.54603952 0.31467655 0.66513282 7.9369769e-39
0.54347932 0.32451794 0.66687286 4.1426544e-39
0.54430532 0.33057755 0.66898733 5.520533e-39
0.26802799 0.56105042 0.66563106 4.1326169e-39
0.27487758 0.5610646 0.66504395 4.1326169e-39
0.28504205 0.56108564 0.66509575 4.1326169e-39
0.29506356 0.56110644 0.66509289 4.1326169e-39
0.30064845 0.56111795 0.6646328 4.1326169e-39
0.26632497 -0.55895364 0.67533785 1.1164145e-41
0.27502298 -0.55893582 0.6750114 1.1164145e-41
0.28495067 -0.55891526 0.6750468 1.1164145e-41
0.29496983 -0.55889457 0.67494214 1.1164145e-41
0.30026478 -0.55888355 0.67426914 1.1164145e-41
0.5486967 -0.33158877 0.67515612 2.4908052e-39
0.55006623 -0.33297294 0.67948169 1.2918683e-39
0.54867989 -0.32507655 0.67503887 2.8599577e-39
0.54921716 -0.31589979 0.67466205 2.8599577e-39
0.55034661 -0.31103048 0.67468917 2.8599577e-39
0.55231071 -0.30489585 0.67502409 2.8599577e-39
0.55537814 -0.29513553 0.67511016 6.3626349e-39
0.55738348 -0.28501025 0.67499679 1.1708845e-38
0.55879998 -0.27483463 0.67513579 1.0047157e-38
0.5595805 -0.26777634 0.6730057 5.9836944e-39
0.5605123 -0.26389736 0.6760543 6.0766103e-39
0.5617854 -0.25508338 0.6748035 5.8914988e-39
0.56349105 -0.24500033 0.67501581 5.8914988e-39
0.56513745 -0.23471633 0.67489737 5.8918575e-39
0.56640816 -0.22498769 0.67483813 5.8914988e-39
0.56736678 -0.21491894 0.67536515 6.1688059e-39
0.56799287 -0.20518838 0.67478621 1.115531e-38
0.57139933 -0.20446089 0.67430711 2.951796e-39
0.56889284 -0.19477333 0.67470795 7.0076372e-39
0.57019353 -0.19109367 0.67925042 2.8599577e-39
0.56965876 -0.18852039 0.67220426 2.8599577e-39
0.57210243 -0.18460251 0.67555022 2.8599577e-39
0.5763706 -0.17501988 0.67512619 2.8599577e-39
0.57935572 -0.16852775 0.67360353 2.8599577e-39
0.58121175 -0.16481814 0.67551756 2.8599577e-39
0.58657193 -0.070997454 0.67574966 8.1985685e-39
0.57839686 -0.061622631 0.67303628 6.6121557e-39
0.5825361 -0.066570565 0.67437768 6.5210405e-39
0.57367808 -0.055051487 0.67448086 6.7958267e-39
0.56748742 -0.044814453 0.67497194 8.7243721e-39
0.57031745 -0.04979603 0.67523956 8.5407011e-39
0.55970126 -0.030993992 0.67637604 8.7243721e-39
0.56249446 -0.035931338 0.67499262 8.7243721e-39
0.55628371 -0.024841944 0.67516792 8.7243721e-39
0.54893768 -0.011750771 0.67554748 8.7243721e-39
0.55159646 -0.016480263 0.67470706 8.7243721e-39
0.54513478 -0.0047540721 0.6749351 8.7243721e-39
0.55041379 -0.0031650756 0.67385507 8.7243721e-39
0.53875077 0.0070703672 0.6751495 8.7243721e-39
0.54125518 0.0024503267 0.6747297 8.7243721e-39
0.53436428 0.015064412 0.67488563 8.7243721e-39
0.52825475 0.025728891 0.67473787 8.7243721e-39
0.53080338 0.021219783 0.67555082 8.7243721e-39
0.52520066 0.035119195 0.67430913 8.9080431e-39
0.52528763 0.045359191 0.67600679 9.7345626e-39
0.52823979 0.050783172 0.6764704 9.8263981e-39
0.53457272 0.054531384 0.67562062 8.9080431e-39
0.54259104 0.059049044 0.67517889 8.7247323e-39
0.54677731 0.061565835 0.67478591 8.7247323e-39
0.55418456 0.065922529 0.67495179 8.7247323e-39
0.56303281 0.069393106 0.67294061 8.7243721e-39
0.56803787 0.07125026 0.67168826 8.8162076e-39
0.57024831 0.071251065 0.67403966 8.8162076e-39
0.53036988 0.10190466 0.67647964 8.7243721e-39
0.64498848 0.10900956 0.67613178 1.0787969e-38
0.65035933 0.1072932 0.67270744 1.1248228e-38
0.63469046 0.1162211 0.67518669 9.5789876e-39
0.641626 0.11086033 0.67478365 1.1432618e-38
0.65129519 0.11511731 0.67022842 1.1616648e-38
0.62653947 0.12578408 0.67473525 6.0611568e-39
0.63016933 0.12097017 0.67626953 6.2448278e-39
0.62196988 0.13471718 0.67505234 6.1529923e-39
0.61938339 0.14508945 0.67848611 1.0041765e-38
0.62043017 0.14414728 0.67415816 7.9122678e-39
0.61984068 0.15021065 0.67795545 1.1801041e-38
0.62258685 0.15423661 0.67508894 1.1616289e-38
0.44921279 0.19691984 0.67496854 5.4395464e-39
0.45925346 0.1997688 0.67718524 7.6547652e-39
0.46120772 0.19888361 0.67541599 9.4057577e-39
0.44927812 0.20872156 0.67455304 6.1821757e-39
0.45370278 0.20384467 0.67522508 7.0112119e-39
0.44511017 0.21503754 0.6747852 4.6123445e-39
0.43706372 0.2262971 0.67534512 2.5829812e-39
0.4409005 0.22116233 0.67413962 2.3978725e-39
0.42970818 0.23864718 0.6721577 6.1821757e-39
0.43175441 0.23454159 0.67519999 6.2740112e-39
0.61803681 0.23855506 0.67436606 8.952547e-39
0.62194824 0.23698445 0.67729807 9.5057179e-39
0.42951697 0.24478573 0.67428356 6.1821757e-39
0.43020213 0.2421654 0.67671776 6.1821757e-39
0.60707641 0.24715731 0.67516327 8.3068272e-39
0.61366129 0.24215177 0.67616427 8.8603527e-39
0.42962217 0.25030774 0.67634898 6.2732825e-39
0.43344954 0.25456232 0.675264 6.2707476e-39
0.59747481 0.25730374 0.6749422 8.3064685e-39
0.60207754 0.25244772 0.67503226 8.3064685e-39
0.58772457 0.26726651 0.67492759 8.9500639e-39
0.59249532 0.26237684 0.67479926 8.3064685e-39
0.57762241 0.27767605 0.67503786 8.5819876e-39
0.58261007 0.27257898 0.67496431 9.3177828e-39
0.56796616 0.2878533 0.67470551 8.3983082e-39
0.57262307 0.2829133 0.67509645 8.3064685e-39
0.55854326 0.29861999 0.6759218 8.3064685e-39
0.56288671 0.29353738 0.67485005 9.6854975e-39
0.54956746 0.30958414 0.6762737 8.3064685e-39
0.55342442 0.30492797 0.67491162 8.3064685e-39
0.54575843 0.31473044 0.67468065 7.4745751e-39
0.54567504 0.32466435 0.67260176 4.7858546e-39
0.55040699 0.32842094 0.67127991 5.520533e-39
0.54821688 0.33067226 0.67933869 3.6809546e-39
0.26533321 0.55462116 0.6777674 4.1326169e-39
0.26651895 0.5610472 0.67542088 4.1326169e-39
0.27507818 0.5610649 0.67494363 4.1326169e-39
0.28498164 0.5610854 0.67513192 4.1326169e-39
0.29498583 0.56110603 0.6750496 4.1326169e-39
0.30061826 0.56111771 0.67491174 4.1326169e-39
0.25920638 -0.55896825 0.68811107 1.1164145e-41
0.2651448 -0.55895615 0.68503916 1.1164145e-41
0.2750065 -0.55893558 0.68506086 1.1164145e-41
0.28510815 -0.55891472 0.68499899 1.1164145e-41
0.2950457 -0.5588941 0.68501431 1.1164145e-41
0.30031884 -0.55888325 0.68513697 1.1164145e-41
0.55184436 -0.33331209 0.68432409 1.8450575e-39
0.54952216 -0.32364097 0.68317229 2.8599577e-39
0.55065888 -0.32629871 0.68509656 2.7677621e-39
0.54927659 -0.3160339 0.68434477 2.8599577e-39
0.55040777 -0.31174219 0.68640846 2.8599577e-39
0.55248982 -0.30499238 0.68523008 2.8599577e-39
0.55589283 -0.29489914 0.68495309 7.192027e-39
0.55815387 -0.28513753 0.68518895 1.1801041e-38
0.55941445 -0.27671343 0.684636 1.1708845e-38
0.5602423 -0.27168515 0.68599522 1.1708845e-38
0.56121588 -0.2647002 0.68490428 1.1062753e-38
0.5627628 -0.25496134 0.68507636 9.4936205e-39
0.56447238 -0.24506128 0.68506628 8.8471693e-39
0.56617302 -0.23534264 0.68499601 8.9390062e-39
0.56784064 -0.22493409 0.68475807 9.4932618e-39
0.56888419 -0.21461782 0.68532866 1.1247505e-38
0.56933886 -0.20523976 0.68404955 1.1708845e-38
0.57022119 -0.20333642 0.68895656 1.1616651e-38
0.56963104 -0.19679682 0.68200123 1.0510675e-38
0.5705514 -0.19427592 0.68605602 4.9800746e-39
0.57246858 -0.18518257 0.68558151 2.8599577e-39
0.57538068 -0.17508505 0.68615532 2.8599577e-39
0.57840002 -0.16759706 0.68610412 2.8599577e-39
0.58350247 -0.16324212 0.68578649 2.951796e-39
0.59151387 -0.16389415 0.68981981 3.1361914e-39
0.58494097 -0.07109341 0.68640387 9.9564064e-39
0.57803273 -0.062353253 0.68615538 8.5547464e-39
0.58167017 -0.067294911 0.68635368 8.4726317e-39
0.57323849 -0.055108842 0.68527609 8.6422602e-39
0.5672968 -0.044988815 0.68472028 9.1914726e-39
0.57793093 -0.049084395 0.6841175 1.5212279e-38
0.55961287 -0.031507637 0.68628889 9.8436859e-39
0.56247222 -0.036512326 0.68497485 9.1021622e-39
0.55638707 -0.025606107 0.68479186 6.4346434e-39
0.56889564 -0.029192675 0.68717259 1.1237782e-38
0.54866654 -0.011804895 0.68513966 5.7003322e-39
0.55184054 -0.017466445 0.68517536 5.7921649e-39
0.5446372 -0.0045414241 0.68503588 5.5170228e-39
0.5384481 0.007190017 0.68498129 1.0030237e-38
0.54091161 0.0024734454 0.68511862 7.8204477e-39
0.53428125 0.015005238 0.68500847 1.0123873e-38
0.52809632 0.025860673 0.68490124 1.0216787e-38
0.53080362 0.021226162 0.68584251 1.0495895e-38
0.52346987 0.034870394 0.68522578 1.0497334e-38
0.52703565 0.044917744 0.6841256 1.076672e-38
0.53130686 0.048805106 0.68132865 1.019374e-38
0.53575134 0.053911284 0.68401831 9.8418838e-39
0.54224175 0.058725286 0.68591201 8.841417e-39
0.54644817 0.061223079 0.6854881 8.8403366e-39
0.55410129 0.065793961 0.68544769 9.4860661e-39
0.56297505 0.07094384 0.68836254 1.1523012e-38
0.52993047 0.097829953 0.68120497 9.2170421e-39
0.53805697 0.1026023 0.68360376 1.0592772e-38
0.64626324 0.1088286 0.68487751 1.078761e-38
0.63559663 0.11576567 0.68502492 1.0412347e-38
0.64136481 0.11101748 0.68524468 1.1432618e-38
0.62706995 0.12557566 0.6847747 6.2448278e-39
0.63066179 0.12068423 0.68535864 6.2448278e-39
0.622109 0.1350603 0.68483317 6.2448278e-39
0.61954087 0.14578272 0.68410462 1.0227237e-38
0.62036407 0.14227708 0.68849409 7.0789086e-39
0.61958164 0.1510998 0.68586296 1.1801041e-38
0.62366611 0.15502036 0.68551922 1.1801041e-38
0.63062882 0.15946884 0.68084556 1.1801041e-38
0.46318224 0.1989501 0.6841796 8.2997745e-39
0.44933873 0.20885257 0.68541825 7.195243e-39
0.45467368 0.20375818 0.68491876 7.1034075e-39
0.46069005 0.20043051 0.6871832 6.5509582e-39
0.44523382 0.21483718 0.68504488 5.6254062e-39
0.43729621 0.22602081 0.68522596 2.950319e-39
0.44079375 0.221071 0.68438751 2.4897066e-39
0.4296301 0.23952296 0.68435121 8.2086691e-39
0.43222395 0.23430303 0.68498623 7.6558582e-39
0.61922574 0.23925926 0.6862728 8.3064685e-39
0.62343746 0.23730871 0.68422282 8.2128548e-39
0.42860246 0.24394923 0.68500483 7.2867128e-39
0.43058354 0.24906825 0.68540394 6.0859934e-39
0.60739702 0.24769892 0.68401122 8.3064685e-39
0.61418086 0.24282929 0.68560839 8.3064685e-39
0.43328959 0.25325447 0.68486786 6.0859906e-39
0.59746099 0.25733986 0.68494791 8.3064685e-39
0.60241622 0.25225708 0.68503237 8.3064685e-39
0.58732897 0.26765209 0.68505085 9.134102e-39
0.5924052 0.26252994 0.68496078 8.3064685e-39
0.57765692 0.27751327 0.68507177 8.3064685e-39
0.58240956 0.27257729 0.68506974 9.2259417e-39
0.56802368 0.28782544 0.68497676 8.3064699e-39
0.57262617 0.28289095 0.68491501 8.3064685e-39
0.55853957 0.29844132 0.6854673 8.3064685e-39
0.56281549 0.29349521 0.68507618 8.398311e-39
0.54951501 0.30935875 0.68594599 8.3064685e-39
0.55370086 0.3043738 0.68481588 8.3064685e-39
0.54586434 0.31475353 0.6851204 8.1213654e-39
0.55219579 0.31655845 0.68252236 8.7660271e-39
0.54588658 0.32435548 0.68589187 5.2529284e-39
0.54742402 0.33054489 0.6854887 3.5884003e-39
0.25916985 0.56103182 0.68795204 4.1326169e-39
0.26495394 0.56104386 0.68507159 4.1326169e-39
0.2749097 0.56106448 0.68502539 4.1326169e-39
0.28483927 0.56108505 0.68505591 4.1326169e-39
0.294826 0.56110561 0.68499225 4.1326169e-39
0.30052581 0.56111741 0.68414468 4.1326169e-39
0.25775835 -0.55897111 0.69591266 1.1164145e-41
0.26502866 -0.55891889 0.69502622 1.1164145e-41
0.27502474 -0.55893534 0.69509166 1.1164145e-41
0.28498614 -0.55891478 0.69494277 1.1164145e-41
0.29495087 -0.55889422 0.69502836 1.1164145e-41
0.30029383 -0.55888301 0.69500822 1.1164145e-41
0.31636354 -0.53659099 0.69652128 1.1164145e-41
0.55068111 -0.33212653 0.69502515 2.7673991e-39
0.54979229 -0.32374886 0.69583029 2.8599577e-39
0.55048108 -0.32620767 0.69500083 3.3205659e-39
0.54957831 -0.31811658 0.6935693 2.8599577e-39
0.55105263 -0.31383532 0.69584304 2.8599577e-39
0.55353832 -0.30504712 0.69482368 2.8599577e-39
0.55649197 -0.29503316 0.69481874 5.5328827e-39
0.55886668 -0.28518182 0.69466448 1.1801041e-38
0.5601719 -0.2809318 0.69856805 1.1801041e-38
0.55967921 -0.27837279 0.69201654 1.1801041e-38
0.56087267 -0.27423277 0.69573665 1.1801041e-38
0.56217939 -0.26527581 0.69479007 1.1801041e-38
0.56384575 -0.25514442 0.6951952 1.1801041e-38
0.55746007 -0.2401793 0.69547266 7.0184174e-39
0.56546849 -0.24493544 0.69504058 1.1801041e-38
0.56706995 -0.23466571 0.6950168 1.1801041e-38
0.56854111 -0.22501135 0.6948632 1.1708845e-38
0.56963021 -0.21678698 0.69340205 1.1616651e-38
0.57042694 -0.21342434 0.69680411 1.0879453e-38
0.57113802 -0.20475128 0.69517839 9.1277541e-39
0.57193559 -0.19488478 0.69500637 2.9521519e-39
0.57391989 -0.18469299 0.69484115 2.8599577e-39
0.57719618 -0.17498142 0.69419551 2.8599577e-39
0.57939726 -0.16870044 0.69265038 2.8599577e-39
0.58192521 -0.16553938 0.69469291 2.8599577e-39
0.59644985 -0.16459006 0.69021773 3.1361914e-39
0.58754599 -0.071114071 0.69456756 1.2170904e-38
0.5911575 -0.070672706 0.6989761 1.3369807e-38
0.57871276 -0.06141432 0.69423354 1.2722635e-38
0.58376002 -0.066369884 0.69557005 1.2169457e-38
0.57342565 -0.05430045 0.69553387 1.2446047e-38
0.61365861 -0.05844669 0.69888228 1.4843496e-38
0.63034469 -0.051365141 0.6947096 1.8991935e-38
0.56749398 -0.044358347 0.69518459 1.2076903e-38
0.57039934 -0.048480526 0.69916272 1.4289957e-38
0.55943233 -0.031226993 0.69283128 1.143226e-38
0.56252426 -0.035153158 0.69627243 1.2354213e-38
0.55659771 -0.024908219 0.6954695 3.5049642e-39
0.56028628 -0.029033259 0.69925481 1.4198133e-38
0.54893905 -0.012384173 0.69301254 2.8599577e-39
0.55223006 -0.01623787 0.69634593 2.8599577e-39
0.62551576 -0.016945399 0.69912976 1.97295e-38
0.53893691 -0.0014192257 0.69766444 9.4976927e-39
0.54589814 -0.0049378206 0.6957714 2.9521575e-39
0.5501709 -0.0099062137 0.69956672 2.8599577e-39
0.53894532 0.0077147172 0.69426459 1.1063474e-38
0.54177457 0.0035761991 0.69645756 8.2980005e-39
0.53543836 0.015096003 0.69556141 1.0694332e-38
0.52872872 0.02694295 0.69397986 1.0694332e-38
0.53146082 0.022970472 0.69652218 9.7727354e-39
0.52550244 0.035031691 0.6951226 1.0049322e-38
0.53395444 0.034384012 0.69820839 1.1616649e-38
0.52566606 0.044456504 0.69492531 1.1247863e-38
0.53292203 0.047431257 0.69562644 1.2722634e-38
0.52766919 0.052088019 0.69160932 8.7243721e-39
0.53535956 0.053343296 0.69547325 1.0417745e-38
0.54289901 0.057644807 0.69716966 9.4039542e-39
0.54732865 0.060787857 0.6954596 9.0351717e-39
0.55528545 0.065160103 0.69469869 1.0418106e-38
0.56509626 0.06809856 0.69617337 1.2814831e-38
0.57382494 0.06882903 0.69994217 1.6134232e-38
0.56690419 0.071062379 0.69225293 1.4013732e-38
0.57305384 0.070856266 0.6959089 1.4474351e-38
0.64743572 0.10866092 0.69451445 1.0880165e-38
0.63557917 0.11619359 0.69488651 1.1523373e-38
0.64246029 0.11106918 0.69530886 1.1801402e-38
0.62713766 0.12604322 0.69483316 1.0319072e-38
0.63079041 0.12108669 0.69374001 9.7640992e-39
0.61177057 0.13911228 0.69308162 8.2824909e-39
0.62258667 0.13457653 0.69506478 1.0690016e-38
0.61973077 0.14775796 0.69496071 1.1801041e-38
0.62040758 0.14306238 0.6957674 1.1615929e-38
0.61945087 0.15034868 0.69353706 1.1801041e-38
0.62361085 0.15538114 0.69631344 1.1801041e-38
0.63044471 0.15957239 0.69612062 1.1893236e-38
0.46333605 0.1993604 0.69481462 8.6685584e-39
0.44929409 0.20916091 0.69423151 6.1821757e-39
0.45398363 0.20474145 0.69553703 6.0896185e-39
0.46164441 0.20036495 0.69496405 7.1026845e-39
0.44544765 0.21508092 0.69537181 5.8130358e-39
0.43755332 0.22626984 0.69512069 5.4438974e-39
0.44092849 0.22134103 0.69545072 5.351343e-39
0.4297429 0.23886132 0.69468182 6.1821743e-39
0.43244559 0.23380414 0.69561034 6.0896199e-39
0.61780059 0.23846111 0.6960324 8.490857e-39
0.6238876 0.23711137 0.69599241 9.6879862e-39
0.42911389 0.24331957 0.69464368 6.2732867e-39
0.43088895 0.24856232 0.69632179 6.0885297e-39
0.60707349 0.24702193 0.69552594 8.3064685e-39
0.6133762 0.24205633 0.69423735 8.3064685e-39
0.43485728 0.25429466 0.69557852 5.7168493e-39
0.59712517 0.25723246 0.69509828 8.3061098e-39
0.60215044 0.25213358 0.69493568 8.3064685e-39
0.44777688 0.26136023 0.6991995 4.9760319e-39
0.5873298 0.26737821 0.69510096 8.3064685e-39
0.59216952 0.26241496 0.69528747 8.3064685e-39
0.57775587 0.27737814 0.69500434 8.3064685e-39
0.58229578 0.27260685 0.69505513 8.3064685e-39
0.56787467 0.28803137 0.69526446 8.3064685e-39
0.57266366 0.28279117 0.69502163 8.3064685e-39
0.55891395 0.29801175 0.6949023 8.3064685e-39
0.56293589 0.29352596 0.69500631 8.3064685e-39
0.54964948 0.3093147 0.69146985 8.3064685e-39
0.55369222 0.30466649 0.69494009 8.5823323e-39
0.54866451 0.31531143 0.69300687 9.3209665e-39
0.55077595 0.31291798 0.69451284 9.4131608e-39
0.54777205 0.32456362 0.69275302 8.9514708e-39
0.25769112 0.56102866 0.69573301 4.1326169e-39
0.26483884 0.56104356 0.69504583 4.1326169e-39
0.27491507 0.5610643 0.69503683 4.1326169e-39
0.28488627 0.56108493 0.69506276 4.1326169e-39
0.29490003 0.56110561 0.69492429 4.1326169e-39
0.30064443 0.56111753 0.69499493 4.1326169e-39
0.25605109 -0.55897439 0.70540351 1.1164145e-41
0.26486409 -0.55895627 0.70504332 1.1164145e-41
0.27492404 -0.55893528 0.70511234 1.1164145e-41
0.28501102 -0.55891448 0.70504552 1.1164145e-41
0.29497108 -0.55889374 0.70493931 1.1164145e-41
0.30020913 -0.55888301 0.70528889 1.1164145e-41
0.31252182 -0.53976345 0.70225632 1.1164145e-41
0.55242729 -0.33294851 0.70661134 1.8450589e-39
0.55093306 -0.32490128 0.705172 2.7681208e-39
0.55181468 -0.31513894 0.70521098 2.8599577e-39
0.55425453 -0.30483964 0.7052319 2.8606751e-39
0.55713457 -0.29470652 0.70505244 4.9807935e-39
0.55928153 -0.28699327 0.70428574 1.1341144e-38
0.56061488 -0.28256229 0.70590496 1.106528e-38
0.5619548 -0.27522412 0.70489854 1.106528e-38
0.55787253 -0.264029 0.70825171 4.612451e-39
0.56370431 -0.26490301 0.70490563 1.1157116e-38
0.56533962 -0.25488523 0.70520526 1.1157475e-38
0.56667668 -0.24501775 0.70491195 1.1525175e-38
0.56801671 -0.23511916 0.70492852 1.1617011e-38
0.56933206 -0.2253913 0.70452172 1.0787259e-38
0.5702219 -0.2216455 0.7077592 4.4272652e-39
0.57101005 -0.2146713 0.70539653 3.228736e-39
0.57233137 -0.20532586 0.70464224 2.8599577e-39
0.57384789 -0.19494443 0.70527709 2.8599577e-39
0.5759877 -0.18484208 0.70498168 2.8599577e-39
0.57806265 -0.17544545 0.70476383 2.8599577e-39
0.58042419 -0.17251542 0.70873785 2.8599577e-39
0.57915229 -0.16854025 0.70303315 2.8599577e-39
0.58411723 -0.16531551 0.70510978 2.8599577e-39
0.59112859 -0.16159189 0.70786721 2.9521589e-39
0.57942247 -0.060094617 0.70059347 1.2630801e-38
0.58567387 -0.062873378 0.70373082 1.2630438e-38
0.59341973 -0.064344145 0.7047599 1.6778517e-38
0.60023391 -0.061199583 0.70563358 1.5487421e-38
0.57675856 -0.053713351 0.70236415 1.3829342e-38
0.58449233 -0.054538742 0.70563638 1.7793392e-38
0.59496987 -0.055134833 0.70683247 1.5673256e-38
0.60453552 -0.054112177 0.70641756 1.5120083e-38
0.61489093 -0.052508134 0.7036553 1.5027886e-38
0.62254429 -0.052281883 0.70121264 1.6963996e-38
0.56886905 -0.041969817 0.70103884 1.2999219e-38
0.57442069 -0.044654507 0.70310754 1.6963632e-38
0.584903 -0.045143198 0.70497692 1.705583e-38
0.59592605 -0.045143019 0.70572144 1.4935692e-38
0.60463893 -0.044615243 0.70615745 1.5027888e-38
0.61445922 -0.044831332 0.70642698 1.7609363e-38
0.62478602 -0.045047175 0.70499909 1.8069619e-38
0.63144922 -0.04242605 0.70406312 1.954475e-38
0.56649643 -0.034276079 0.70214587 1.4290325e-38
0.57514244 -0.035007242 0.70452553 1.8254732e-38
0.58501905 -0.035222691 0.70525688 1.539667e-38
0.59475046 -0.035092425 0.70560533 1.4935692e-38
0.60504341 -0.034589514 0.70600188 1.6410822e-38
0.61461014 -0.035179339 0.70642471 1.9176328e-38
0.62412864 -0.035339229 0.70710385 1.9545469e-38
0.63213587 -0.037700657 0.70535648 1.9544749e-38
0.55765659 -0.023142241 0.70172536 4.2393048e-39
0.56488436 -0.025188958 0.70365769 9.4054803e-39
0.57514769 -0.025412945 0.70567048 1.6042045e-38
0.58533698 -0.024929177 0.70572054 1.5304475e-38
0.59490305 -0.024643095 0.70568109 1.5212279e-38
0.60447043 -0.024872892 0.70591676 1.8438763e-38
0.61411482 -0.025629761 0.70698071 1.9084493e-38
0.62361109 -0.026291888 0.70506692 1.7608639e-38
0.55629474 -0.014878863 0.70272785 3.8745048e-39
0.564592 -0.015096851 0.70570666 4.612451e-39
0.57448399 -0.014997532 0.70640135 6.0875698e-39
0.58507472 -0.014677871 0.70617521 1.1525592e-38
0.59561628 -0.015003433 0.70608121 1.7424973e-38
0.60582566 -0.015301947 0.70657897 1.9361079e-38
0.61451161 -0.015566326 0.70653319 1.9268524e-38
0.62217361 -0.019203436 0.70285714 1.7608637e-38
0.54867834 -0.0031920171 0.70123905 3.6901051e-39
0.55427605 -0.0053909854 0.70461482 4.0589002e-39
0.56433314 -0.0046309233 0.70660764 4.8890477e-39
0.57452881 -0.0048639467 0.70649254 4.8890463e-39
0.58492726 -0.0051024449 0.70634902 4.9812419e-39
0.59537065 -0.005338456 0.70636582 8.3917221e-39
0.60482752 -0.0057070451 0.70673782 1.6780357e-38
0.612486 -0.0058547212 0.70584071 1.5581466e-38
0.54619628 0.0054464638 0.70306885 8.9437384e-39
0.55451316 0.0047821738 0.70623159 4.704648e-39
0.56446129 0.0047646528 0.70645046 4.8894064e-39
0.57457626 0.004615888 0.70643556 4.8890463e-39
0.5849117 0.0044635832 0.70636731 4.8894064e-39
0.59543675 0.0051127244 0.70628959 4.8890463e-39
0.60444051 0.004351215 0.7062431 4.9812433e-39
0.6115458 0.00321938 0.70374858 5.0738005e-39
0.53793377 0.016853224 0.70246029 1.1523013e-38
0.54468185 0.014754337 0.70451653 1.5488874e-38
0.55501878 0.015002685 0.70583838 9.4054803e-39
0.56475323 0.014945638 0.70609218 5.1656275e-39
0.57468122 0.014887228 0.70630866 4.8890449e-39
0.58485329 0.014826545 0.70643616 4.8890477e-39
0.59529358 0.015428175 0.70628703 4.8890477e-39
0.60329962 0.014441085 0.70455909 4.8890449e-39
0.52999079 0.028875992 0.70080161 8.9429761e-39
0.53532058 0.025305256 0.70263451 1.5857648e-38
0.54504865 0.025086218 0.70485526 1.5581061e-38
0.5551874 0.025111279 0.7056281 1.5027888e-38
0.56494415 0.025136711 0.70585805 1.355314e-38
0.57468873 0.025161348 0.70629942 8.115131e-39
0.58472669 0.025187194 0.70658594 4.8890463e-39
0.59365946 0.024562793 0.70598739 7.2853801e-39
0.52807367 0.036137205 0.70195013 1.3736785e-38
0.53468311 0.034932215 0.70406842 1.6963996e-38
0.54517096 0.034999881 0.70500904 1.4935692e-38
0.55530822 0.035225254 0.70547718 1.5027888e-38
0.56493682 0.034724019 0.70570862 1.5673257e-38
0.57482225 0.03464894 0.70613903 1.9361077e-38
0.58456427 0.034509126 0.70602173 1.4659869e-38
0.59209883 0.034051035 0.70403939 1.7608282e-38
0.52759159 0.042783856 0.70201552 1.4474708e-38
0.53444082 0.045196429 0.70377976 1.5212278e-38
0.54507232 0.045146398 0.70482641 1.4935692e-38
0.55513537 0.045330781 0.70569247 1.4935692e-38
0.56493902 0.044874094 0.70600855 1.8439123e-38
0.57495886 0.044641923 0.70551479 1.9913523e-38
0.58359468 0.044886537 0.70436531 1.9545109e-38
0.59059346 0.041285213 0.70211345 2.0098646e-38
0.5373112 0.051511396 0.70142472 1.2354213e-38
0.54541737 0.053837929 0.70299238 1.2815193e-38
0.55471611 0.055007663 0.70532662 1.4105931e-38
0.56461674 0.055038691 0.7071045 1.9361078e-38
0.57505971 0.054672856 0.7060504 2.0467063e-38
0.58360118 0.054472253 0.70258975 2.0559265e-38
0.54956049 0.060088284 0.70034283 1.1985432e-38
0.55585206 0.061772387 0.70306695 1.1524454e-38
0.56476438 0.063264295 0.70519072 1.6042038e-38
0.57350713 0.064072467 0.70485324 1.7332776e-38
0.64819312 0.10788476 0.70274067 1.2990223e-38
0.63622177 0.11676782 0.70457321 1.1801041e-38
0.64440435 0.11206425 0.70542765 1.2815554e-38
0.65412897 0.11248398 0.70662761 1.7794115e-38
0.62770647 0.1266387 0.7050187 1.1708845e-38
0.63125205 0.12165763 0.70531273 1.1708845e-38
0.62343347 0.13530293 0.70513314 1.1801041e-38
0.62196493 0.14568816 0.70531642 1.2722997e-38
0.62477249 0.15349062 0.70518547 1.3276171e-38
0.63275224 0.1563392 0.70589983 1.5212279e-38
0.4551827 0.20597745 0.70524496 4.6021907e-39
0.46496978 0.20384829 0.70608234 6.3520986e-39
0.47281182 0.20743357 0.70706767 6.8119921e-39
0.44712919 0.2159541 0.70490605 4.3266884e-39
0.45181385 0.21263143 0.70852381 4.9684438e-39
0.4758791 0.21279874 0.70817488 6.6257932e-39
0.62610549 0.21495587 0.70889485 7.6568419e-39
0.63304043 0.21410686 0.70483041 8.7677984e-39
0.43834871 0.22779955 0.70397037 4.3270513e-39
0.44277507 0.22395515 0.70644629 4.5096321e-39
0.47507191 0.22563818 0.70935309 6.6247114e-39
0.43444815 0.23517776 0.7056663 4.4178008e-39
0.4402808 0.23092531 0.7097311 5.1524736e-39
0.47174007 0.2347987 0.70704871 6.4410404e-39
0.61571336 0.23886 0.70517421 8.952547e-39
0.62386864 0.2393399 0.70096987 1.1995709e-38
0.42983055 0.24231285 0.70101887 4.1430216e-39
0.43275174 0.2451974 0.70613593 4.1408496e-39
0.46765876 0.24098927 0.70807618 6.3488461e-39
0.47501779 0.2466021 0.70356804 4.9760319e-39
0.60693538 0.24703883 0.70530367 8.3064685e-39
0.61170721 0.24191847 0.70496142 8.3064685e-39
0.62839222 0.24014786 0.70087171 9.3128236e-39
0.63066804 0.24055435 0.70082235 9.0351717e-39
0.43638206 0.25312325 0.70505381 4.2337683e-39
0.44336319 0.25663018 0.70724684 4.4167134e-39
0.45731249 0.25636646 0.70604986 6.2570106e-39
0.59720868 0.25691348 0.70495784 8.3064685e-39
0.60239023 0.2526564 0.70534921 8.3064685e-39
0.44938296 0.26144487 0.70051837 4.7901945e-39
0.58725739 0.26727858 0.70500582 8.3064685e-39
0.59212887 0.26218021 0.70522636 8.3064685e-39
0.57768881 0.27736354 0.70513797 8.3064685e-39
0.58238244 0.27238187 0.70499039 8.3064685e-39
0.59077138 0.2705611 0.70076382 1.0786494e-38
0.56795388 0.28795364 0.70495141 8.9493128e-39
0.57262629 0.28286788 0.70520443 8.4901381e-39
0.55867267 0.29881984 0.70485687 8.2071052e-39
0.56315076 0.29361033 0.70504564 8.8538899e-39
0.54977393 0.30964285 0.70378828 4.0576489e-39
0.55371922 0.3047052 0.70513183 8.8503531e-39
0.54621124 0.3143799 0.7059226 7.0128794e-39
0.54380476 0.32476476 0.70604551 4.2359165e-39
0.54467309 0.33024126 0.70901412 3.5884003e-39
0.25607911 0.56102532 0.70546025 4.1326169e-39
0.26501355 0.56104368 0.70510811 4.1326169e-39
0.27503961 0.56106448 0.70502245 4.1326169e-39
0.28493118 0.56108487 0.70501685 4.1326169e-39
0.29496431 0.56110567 0.70500767 4.1326169e-39
0.30053166 0.56111717 0.70453066 4.1326169e-39
0.24957888 -0.55898762 0.71538717 1.1164145e-41
0.25515348 -0.55897623 0.71477807 1.1164145e-41
0.26502043 -0.55895567 0.71509641 1.1164145e-41
0.27503437 -0.55893493 0.71504587 1.1164145e-41
0.2849223 -0.55891442 0.71506345 1.1164145e-41
0.29496688 -0.55889362 0.71499705 1.1164145e-41
0.30032283 -0.55888253 0.71490908 1.1164145e-41
0.55707318 -0.34495667 0.71870649 2.9521561e-39
0.56321108 -0.34112293 0.71673387 2.9521561e-39
0.55612785 -0.33461246 0.71399188 2.4911654e-39
0.56070828 -0.33806589 0.71711004 2.9521561e-39
0.55218637 -0.32511428 0.71473444 2.6773545e-39
0.55342799 -0.31510887 0.71512932 2.7889623e-39
0.55533463 -0.3050566 0.71491957 2.789321e-39
0.55811465 -0.29511797 0.71511698 2.7896812e-39
0.55956984 -0.28900629 0.71283919 3.2499348e-39
0.56105185 -0.28420866 0.71539348 2.8822355e-39
0.56307888 -0.2747052 0.71498221 2.8822355e-39
0.56496477 -0.26476461 0.71495014 2.8822355e-39
0.56640095 -0.25504866 0.71505237 2.974071e-39
0.56780863 -0.24520451 0.71486908 3.2499362e-39
0.56921768 -0.2351739 0.71489203 3.3421305e-39
0.57012618 -0.23076899 0.71783721 2.7904e-39
0.56968063 -0.2290715 0.71150827 5.2728269e-39
0.5707792 -0.22445068 0.71550035 2.8815153e-39
0.57201052 -0.2152622 0.71492118 2.7871658e-39
0.57340431 -0.20505075 0.71506059 2.7860882e-39
0.56850046 -0.1948144 0.71465802 5.8918589e-39
0.57477343 -0.19470869 0.71550739 2.7868071e-39
0.57707894 -0.18515278 0.71508569 2.7832128e-39
0.57918847 -0.17872384 0.71484452 2.7810576e-39
0.58141214 -0.17366175 0.71330607 2.7774632e-39
0.58511674 -0.16638778 0.71373177 2.9557504e-39
0.59460342 -0.16352245 0.71374279 3.5979067e-39
0.59751445 -0.017239092 0.71530926 1.8161816e-38
