# .PCD v0.7 - Point Cloud Data file format
VERSION 0.7
FIELDS x y z rgb
SIZE 4 4 4 4
TYPE F F F F
COUNT 1 1 1 1
WIDTH 1013
HEIGHT 1
VIEWPOINT 0 0 0 1 0 0 0
POINTS 1013
DATA ascii
0.84422839 -0.075342551 0.61000186 1.0879084e-38
0.85522944 -0.074423149 0.61000192 1.0879084e-38
0.86449152 -0.074996509 0.6100021 1.0879084e-38
0.56748945 -0.065061577 0.61000007 1.0879084e-38
0.57588136 -0.064593829 0.61055207 1.0879084e-38
0.58356601 -0.066237606 0.61135834 1.0694693e-38
0.69609863 -0.068293825 0.61000085 1.0879084e-38
0.70477235 -0.066106483 0.61000091 1.0879084e-38
0.71450144 -0.065195926 0.61000085 1.0879084e-38
0.72431517 -0.064690046 0.61000091 1.0879084e-38
0.73487568 -0.065059103 0.61000115 1.0879084e-38
0.74559438 -0.065432295 0.61000127 1.0879084e-38
0.7545743 -0.064675808 0.61000133 1.0879084e-38
0.76420647 -0.064883396 0.61000144 1.0879084e-38
0.77517122 -0.065532975 0.6100015 1.0879084e-38
0.78458834 -0.064318955 0.6105116 1.0879084e-38
0.79475939 -0.064700335 0.61000156 1.0879084e-38
0.80474633 -0.065278716 0.61000156 1.0879084e-38
0.81487381 -0.065358795 0.61000162 1.0879084e-38
0.82513165 -0.064425737 0.61000168 1.0879084e-38
0.83403832 -0.064929679 0.6100018 1.0879084e-38
0.84456462 -0.065525271 0.61000186 1.0879084e-38
0.85546565 -0.064705528 0.61000198 1.0879084e-38
0.86449152 -0.064566799 0.6100021 1.0879084e-38
0.33574361 -0.054291748 0.61373621 1.0786889e-38
0.56740087 -0.055443004 0.61040968 1.0599616e-38
0.57504857 -0.05497548 0.61069286 1.0879084e-38
0.58020288 -0.058966748 0.61234242 7.5600374e-39
0.71585852 -0.057059355 0.61000097 1.0879084e-38
0.72449887 -0.054932676 0.61000091 1.0879084e-38
0.73487568 -0.055492174 0.61000121 1.0879084e-38
0.74523163 -0.054876897 0.61000133 1.0879084e-38
0.75474209 -0.054623511 0.61000127 1.0879084e-38
0.76420653 -0.055121221 0.61000144 1.0879084e-38
0.7751714 -0.055697821 0.61000144 1.0879084e-38
0.7848978 -0.05422933 0.6100015 1.0879084e-38
0.79469162 -0.054891132 0.61017448 1.0879084e-38
0.80474627 -0.055246677 0.61000156 1.0879084e-38
0.81464374 -0.055540737 0.61000162 1.0879084e-38
0.82513165 -0.054258004 0.61000168 1.0879084e-38
0.83403808 -0.054702654 0.61000168 1.0879084e-38
0.84456474 -0.055228185 0.61000186 1.0879084e-38
0.85501009 -0.055452846 0.61000204 1.0879084e-38
0.86473054 -0.054789875 0.61000204 1.0879084e-38
0.56762046 -0.044871636 0.61231095 1.0786889e-38
0.57253641 -0.04710298 0.61115652 1.0879084e-38
0.71786439 -0.04106022 0.61308044 1.0879084e-38
0.7249276 -0.04534984 0.61000091 1.0879084e-38
0.73487568 -0.044968557 0.61000127 1.0879084e-38
0.74540472 -0.044495467 0.61000127 1.0879084e-38
0.75474221 -0.044924337 0.61000133 1.0879084e-38
0.76420659 -0.045359038 0.61000144 1.0879084e-38
0.77542216 -0.045336727 0.6100015 1.0879084e-38
0.78489786 -0.044329416 0.6100015 1.0879084e-38
0.79475933 -0.044769235 0.61000156 1.0879084e-38
0.80474639 -0.045214646 0.61000156 1.0879084e-38
0.81487387 -0.045666326 0.61000162 1.0879084e-38
0.82508779 -0.044122275 0.61051136 1.0879084e-38
0.83403808 -0.044475637 0.61000168 1.0879084e-38
0.84456474 -0.044931095 0.6100018 1.0879084e-38
0.85522938 -0.045392536 0.61000192 1.0879084e-38
0.86426955 -0.045485087 0.61000204 1.0879084e-38
0.44349819 -0.033695996 0.6103161 1.0786889e-38
0.5642671 -0.035436317 0.61535156 1.0971279e-38
0.71638632 -0.034349117 0.61000103 1.0879084e-38
0.72449893 -0.034987174 0.61000091 1.0879084e-38
0.73487568 -0.034444932 0.61000115 1.0879084e-38
0.74540484 -0.034858443 0.61000127 1.0879084e-38
0.75474209 -0.03522516 0.61000133 1.0879084e-38
0.76420653 -0.035596866 0.61000144 1.0879084e-38
0.77510524 -0.034805723 0.6100015 1.0879084e-38
0.78489774 -0.034429505 0.6100015 1.0879084e-38
0.79475951 -0.034803681 0.61000156 1.0879084e-38
0.80474621 -0.035182606 0.61000162 1.0879084e-38
0.81487381 -0.035566878 0.61000162 1.0879084e-38
0.8249048 -0.035321165 0.61000168 1.0879084e-38
0.83403808 -0.034248617 0.6100018 1.0879084e-38
0.84456474 -0.034634002 0.61000186 1.0879084e-38
0.85522944 -0.035024457 0.61000198 1.0879084e-38
0.86449152 -0.035363548 0.6100021 1.0879084e-38
0.55743116 -0.023885226 0.61699909 1.1063474e-38
0.56014413 -0.028982557 0.61742151 1.1524454e-38
0.70721036 -0.023097536 0.61084503 1.0879084e-38
0.71410495 -0.024937829 0.61000085 1.0879084e-38
0.72449887 -0.02453953 0.61000091 1.0879084e-38
0.73487568 -0.024877999 0.61000121 1.0879084e-38
0.74540472 -0.025221428 0.61000127 1.0879084e-38
0.75474197 -0.025525985 0.61000127 1.0879084e-38
0.76445389 -0.025309287 0.6100015 1.0879084e-38
0.77497429 -0.024499347 0.61000144 1.0879084e-38
0.78489786 -0.024529599 0.6100015 1.0879084e-38
0.79475939 -0.024838129 0.61000156 1.0879084e-38
0.80474633 -0.025150577 0.61000162 1.0879084e-38
0.81487387 -0.025467431 0.61000162 1.0879084e-38
0.82511586 -0.02554144 0.61037177 1.0879084e-38
0.83426803 -0.024657227 0.61000168 1.0879084e-38
0.84451258 -0.024295801 0.61034298 1.0879084e-38
0.8552295 -0.02465638 0.61000198 1.0879084e-38
0.86449152 -0.024933821 0.6100021 1.0879084e-38
0.46837431 -0.019252861 0.61334652 1.0786889e-38
0.54947579 -0.010295026 0.61839026 1.1524091e-38
0.55279559 -0.015682684 0.61696374 1.1340062e-38
0.70582336 -0.014125108 0.61000097 1.0879084e-38
0.71427071 -0.014776138 0.61000091 1.0879084e-38
0.72449893 -0.01504167 0.61000091 1.0879084e-38
0.73487574 -0.015311064 0.61000121 1.0879084e-38
0.74540472 -0.015584405 0.61000127 1.0879084e-38
0.75489998 -0.01514563 0.61000133 1.0879084e-38
0.76395917 -0.014645479 0.6100015 1.0879084e-38
0.77517116 -0.014390131 0.6100015 1.0879084e-38
0.7848978 -0.014629689 0.6100015 1.0879084e-38
0.79475951 -0.014872575 0.61000156 1.0879084e-38
0.80474633 -0.015118544 0.61000156 1.0879084e-38
0.81487381 -0.01536798 0.61000162 1.0879084e-38
0.82513165 -0.015620627 0.61000168 1.0879084e-38
0.83366048 -0.015775492 0.61055201 1.0879084e-38
0.84483212 -0.014772203 0.61000192 1.0879084e-38
0.85522944 -0.0142883 0.61000198 1.0879084e-38
0.86449152 -0.014504086 0.61000198 1.0879084e-38
0.54639101 -0.0042458111 0.6175068 1.1062753e-38
0.69795352 -0.0031671475 0.61000091 1.0879084e-38
0.70418811 -0.0051517333 0.61000073 1.0879084e-38
0.71427059 -0.0053463681 0.61000091 1.0879084e-38
0.72449893 -0.0055438136 0.61000097 1.0879084e-38
0.7351132 -0.005225935 0.61000115 1.0879084e-38
0.74540478 -0.0049836808 0.61000133 1.0879084e-38
0.75457424 -0.0045478316 0.61000127 1.0879084e-38
0.76420653 -0.0043578995 0.61000144 1.0879084e-38
0.77517128 -0.004554966 0.6100015 1.0879084e-38
0.78489786 -0.0047297804 0.6100015 1.0879084e-38
0.79475927 -0.0049070208 0.6100015 1.0879084e-38
0.80474639 -0.0050865142 0.61000156 1.0879084e-38
0.81487399 -0.0052685356 0.61000162 1.0879084e-38
0.82513165 -0.0054528983 0.61000168 1.0879084e-38
0.8340382 -0.0056129727 0.61000186 1.0879084e-38
0.84432542 -0.0055804439 0.61000186 1.0879084e-38
0.85522944 -0.0049570291 0.61000198 1.0879084e-38
0.86449146 -0.0051173274 0.61000204 1.0879084e-38
0.54221773 0.0055079572 0.6160903 1.0970555e-38
0.69520724 0.0060796961 0.61000085 1.0879084e-38
0.70418811 0.0051471912 0.61000079 1.0879084e-38
0.71427065 0.0050263833 0.61000085 1.0879084e-38
0.72449893 0.0049038315 0.61000085 1.0879084e-38
0.73455286 0.0052607371 0.61039752 1.0879084e-38
0.74540478 0.0056170416 0.61000127 1.0879084e-38
0.75474197 0.0055113775 0.61000127 1.0879084e-38
0.76420653 0.0054042763 0.61000144 1.0879084e-38
0.77517116 0.0052801976 0.6100015 1.0879084e-38
0.78489774 0.0051701283 0.6100015 1.0879084e-38
0.79475945 0.005058533 0.6100015 1.0879084e-38
0.80474609 0.004945518 0.61000156 1.0879084e-38
0.81487387 0.0048309127 0.61000162 1.0879084e-38
0.82513165 0.0047148312 0.61000168 1.0879084e-38
0.83403832 0.0046140449 0.61000174 1.0879084e-38
0.84456462 0.0044949236 0.61000186 1.0879084e-38
0.85522944 0.004374241 0.61000192 1.0879084e-38
0.86449152 0.0042694299 0.61000198 1.0879084e-38
0.53669906 0.016040824 0.61561704 1.0970557e-38
0.68740362 0.016316267 0.61000079 1.0879084e-38
0.6942479 0.015492432 0.61000079 1.0879084e-38
0.70418811 0.015446117 0.61000085 1.0879084e-38
0.71427077 0.015399136 0.61000091 1.0879084e-38
0.72449887 0.015351472 0.61000097 1.0879084e-38
0.73511344 0.015278057 0.61023682 1.0879084e-38
0.74540466 0.015254063 0.61000127 1.0879084e-38
0.75474209 0.015210553 0.61000127 1.0879084e-38
0.76420653 0.015166449 0.61000144 1.0879084e-38
0.77517134 0.01511536 0.61000144 1.0879084e-38
0.7848978 0.015070035 0.6100015 1.0879084e-38
0.79475939 0.015024086 0.61000156 1.0879084e-38
0.80474627 0.014977549 0.61000156 1.0879084e-38
0.81487399 0.01493036 0.61000162 1.0879084e-38
0.82513165 0.014882563 0.61000168 1.0879084e-38
0.83403808 0.014841061 0.61000168 1.0879084e-38
0.84456474 0.01479201 0.6100018 1.0879084e-38
0.85522944 0.014742316 0.61000198 1.0879084e-38
0.86460185 0.014915937 0.61028063 1.0879084e-38
0.39651734 0.027807081 0.61199367 1.0786889e-38
0.52925336 0.02811826 0.61664331 1.1616647e-38
0.53217351 0.023473393 0.61573178 1.1524452e-38
0.67838639 0.028433612 0.61000073 1.0879084e-38
0.68485242 0.025077062 0.61000073 1.0879084e-38
0.69424814 0.024788925 0.61000085 1.0879084e-38
0.70418811 0.024808776 0.61000085 1.0879084e-38
0.71427071 0.024828907 0.61000091 1.0879084e-38
0.72432691 0.024796344 0.61023241 1.0786889e-38
0.73487574 0.024870059 0.61000127 1.0879084e-38
0.74540484 0.024891082 0.61000127 1.0879084e-38
0.75474209 0.024909729 0.61000127 1.0879084e-38
0.76420647 0.024928626 0.61000144 1.0879084e-38
0.77517122 0.024950525 0.6100015 1.0879084e-38
0.78489774 0.024969947 0.6100015 1.0879084e-38
0.79475939 0.024989642 0.61000156 1.0879084e-38
0.80446935 0.025225641 0.61007518 1.0879084e-38
0.81487387 0.025029805 0.61000162 1.0879084e-38
0.82513165 0.02505029 0.61000168 1.0879084e-38
0.8340382 0.025068076 0.6100018 1.0879084e-38
0.84456474 0.0250891 0.6100018 1.0879084e-38
0.85522938 0.025110396 0.61000192 1.0879084e-38
0.86449152 0.02512889 0.61000198 1.0879084e-38
0.52646226 0.035014998 0.6170041 1.1708483e-38
0.67672098 0.035768233 0.61000067 1.0786889e-38
0.68444735 0.034923736 0.61000067 1.0786889e-38
0.69414651 0.034969389 0.61004943 1.0786889e-38
0.70418805 0.035107698 0.61000079 1.0879084e-38
0.71427065 0.035201661 0.61000085 1.0879084e-38
0.72431517 0.034616239 0.61000091 1.0879084e-38
0.73487568 0.034436982 0.61000109 1.0879084e-38
0.74540478 0.034528099 0.61000127 1.0879084e-38
0.75474209 0.034608901 0.61000127 1.0879084e-38
0.76420641 0.034690805 0.61000144 1.0879084e-38
0.7751714 0.034785684 0.61000144 1.0879084e-38
0.7848978 0.034869853 0.6100015 1.0879084e-38
0.79475951 0.034955189 0.61000156 1.0879084e-38
0.80474627 0.035041615 0.61000156 1.0879084e-38
0.81505859 0.0351482 0.61021012 1.0879084e-38
0.82498765 0.035367817 0.61039203 1.0786889e-38
0.83403832 0.035295092 0.61000174 1.0879084e-38
0.84456474 0.035386182 0.61000186 1.0879084e-38
0.8552295 0.035478473 0.61000198 1.0879084e-38
0.86449152 0.035558622 0.6100021 1.0879084e-38
0.52601522 0.041539662 0.61577475 8.8507777e-39
0.66880643 0.047555961 0.61000067 1.0786889e-38
0.67478359 0.044917285 0.61000067 1.0786889e-38
0.68444741 0.045078117 0.61000073 1.0786889e-38
0.69424808 0.045241203 0.61000079 1.0786889e-38
0.70418811 0.045406617 0.61000085 1.0786889e-38
0.71427071 0.045574412 0.61000091 1.0786889e-38
0.72466666 0.045003429 0.61000091 1.0786889e-38
0.73487574 0.044960614 0.61000133 1.0786889e-38
0.74523169 0.044915982 0.61000133 1.0786889e-38
0.75474209 0.044308078 0.61000127 1.0786889e-38
0.76420647 0.04445298 0.61000144 1.0786889e-38
0.77517128 0.044620849 0.6100015 1.0786889e-38
0.78489786 0.044769764 0.6100015 1.0786889e-38
0.79475951 0.04492075 0.61000156 1.0786889e-38
0.80474639 0.045073651 0.61000156 1.0879084e-38
0.81487387 0.045228697 0.61000162 1.0879084e-38
0.82513165 0.045385756 0.61000162 1.0879084e-38
0.83403838 0.045522112 0.6100018 1.0879084e-38
0.84456462 0.045683272 0.61000186 1.0879084e-38
0.85501003 0.045546379 0.61000198 1.0879084e-38
0.86449146 0.044945385 0.61000198 1.0879084e-38
0.66690868 0.055357933 0.61000061 1.0786889e-38
0.67478365 0.055000905 0.61000067 1.0786889e-38
0.68444735 0.055232484 0.61000067 1.0786889e-38
0.69424808 0.054537695 0.61000079 1.0786889e-38
0.70418811 0.054769278 0.61000079 1.0786889e-38
0.71427071 0.055004187 0.61000091 1.0786889e-38
0.72449893 0.055242479 0.61000091 1.0786889e-38
0.73487574 0.055484235 0.61000121 1.0786889e-38
0.74559432 0.055457864 0.61000127 1.0786889e-38
0.75474215 0.054977164 0.61000127 1.0786889e-38
0.76401246 0.054489035 0.61000144 1.0786889e-38
0.7751714 0.054456014 0.61000144 1.0786889e-38
0.7848978 0.054669674 0.6100015 1.0786889e-38
0.79475951 0.054886304 0.61000156 1.0786889e-38
0.80474639 0.055105675 0.61000156 1.0786889e-38
0.81487387 0.055328149 0.61000162 1.0786889e-38
0.82513165 0.055553481 0.61000168 1.0786889e-38
0.83403838 0.05574913 0.6100018 1.0786889e-38
0.84429795 0.055246934 0.61000192 1.0786889e-38
0.85546565 0.0547833 0.61000204 1.0786889e-38
0.86449152 0.054332137 0.61000198 1.0786889e-38
0.65857798 0.068200096 0.61000061 1.0786889e-38
0.66525334 0.06478636 0.61000061 1.0786889e-38
0.67478353 0.065084517 0.61000067 1.0786889e-38
0.68444741 0.065386862 0.61000073 1.0786889e-38
0.69424814 0.064763844 0.61000079 1.0786889e-38
0.70418811 0.065068208 0.61000073 1.0786889e-38
0.71408957 0.064697221 0.61000091 1.0786889e-38
0.72449887 0.064740337 0.61000097 1.0786889e-38
0.73487568 0.065051168 0.61000121 1.0786889e-38
0.74540466 0.065366566 0.61000127 1.0786889e-38
0.75474209 0.065646261 0.61000133 1.0786889e-38
0.76438379 0.065170377 0.6100015 1.0786889e-38
0.77517128 0.064291187 0.6100015 1.0786889e-38
0.78489774 0.064569585 0.6100015 1.0786889e-38
0.79475933 0.06485185 0.61000156 1.0786889e-38
0.80474621 0.065137707 0.61000156 1.0786889e-38
0.81487387 0.065427586 0.61000168 1.0786889e-38
0.82513165 0.065721206 0.61000162 1.0786889e-38
0.83380866 0.06533961 0.61000186 1.0786889e-38
0.84480333 0.064440697 0.61000186 1.0786889e-38
0.85522944 0.064509086 0.61000198 1.0786889e-38
0.86449152 0.064761862 0.61000198 1.0786889e-38
0.56952929 0.074490979 0.61000007 1.0786889e-38
0.58506918 0.077703245 0.61000013 1.0786889e-38
0.59427232 0.077977709 0.61000013 1.0786889e-38
0.60530394 0.077708319 0.61000019 1.0786889e-38
0.61557859 0.078271009 0.61000031 1.0786889e-38
0.62423044 0.078736082 0.61000037 1.0786889e-38
0.63403827 0.079822026 0.61000043 1.0786889e-38
0.64499027 0.07858292 0.61047375 1.0786889e-38
0.65585601 0.075790808 0.61000061 1.0786889e-38
0.66525328 0.074800201 0.61000061 1.0786889e-38
0.67478353 0.075168125 0.61000067 1.0786889e-38
0.68444741 0.074618116 0.61000073 1.0786889e-38
0.69424808 0.074989989 0.61000073 1.0786889e-38
0.70418817 0.075367123 0.61000091 1.0786889e-38
0.71443599 0.075017326 0.61000085 1.0786889e-38
0.72433084 0.074974671 0.61000085 1.0786889e-38
0.73487574 0.074618101 0.61000121 1.0786889e-38
0.74540478 0.075003579 0.61000127 1.0786889e-38
0.75474209 0.075345434 0.61000133 1.0786889e-38
0.76420647 0.075691938 0.61000144 1.0786889e-38
0.77492028 0.07465294 0.6100015 1.0786889e-38
0.7848978 0.074469477 0.6100015 1.0786889e-38
0.79475939 0.074817412 0.61000156 1.0786889e-38
0.80474621 0.075169735 0.61000156 1.0786889e-38
0.81487387 0.075527042 0.61000162 1.0786889e-38
0.82492071 0.075590432 0.61000162 1.0786889e-38
0.83425134 0.074456625 0.61000168 1.0786889e-38
0.84456474 0.074515119 0.61000186 1.0786889e-38
0.8552295 0.074877165 0.61000198 1.0786889e-38
0.86449152 0.075191595 0.61000198 1.0786889e-38
0.56952929 0.084650539 0.61000007 1.0786889e-38
0.58506924 0.085416012 0.61000001 1.0786889e-38
0.59457737 0.085019812 0.61000031 1.0786889e-38
0.60530388 0.084671862 0.61000043 1.0786889e-38
0.61510855 0.085141771 0.61000037 1.0786889e-38
0.62481928 0.085115448 0.61000055 1.0786889e-38
0.635333 0.084965616 0.61000049 1.0786889e-38
0.64428526 0.084747337 0.61000055 1.0786889e-38
0.6546911 0.085232228 0.61000061 1.0786889e-38
0.66525328 0.084814027 0.61000061 1.0786889e-38
0.67478359 0.085251763 0.61000067 1.0786889e-38
0.68444735 0.084772497 0.61000067 1.0786889e-38
0.69408697 0.085006185 0.61000073 1.0786889e-38
0.70418805 0.084729783 0.61000085 1.0786889e-38
0.71427059 0.085179463 0.61000091 1.0786889e-38
0.72468311 0.08537174 0.61000091 1.0786889e-38
0.73470515 0.084925696 0.61000127 1.0786889e-38
0.74540478 0.084640607 0.61000127 1.0786889e-38
0.75474197 0.0850446 0.61000127 1.0786889e-38
0.76420653 0.085454121 0.61000144 1.0786889e-38
0.77523685 0.085180439 0.61000144 1.0786889e-38
0.7848978 0.084369399 0.6100015 1.0786889e-38
0.79475951 0.084782965 0.61000156 1.0786889e-38
0.80474633 0.08520177 0.61000156 1.0786889e-38
0.81487387 0.085626498 0.61000162 1.0786889e-38
0.82513195 0.085038505 0.61000168 1.0786889e-38
0.8340382 0.084384762 0.6100018 1.0786889e-38
0.84456462 0.084812202 0.61000186 1.0786889e-38
0.85522938 0.085245237 0.61000198 1.0786889e-38
0.86449152 0.08562132 0.6100021 1.0786889e-38
0.4289555 0.097343706 0.61188573 1.0786889e-38
0.56952929 0.091423564 0.61000001 1.0786889e-38
0.58487856 0.095298603 0.61000001 1.0786889e-38
0.59472334 0.094673902 0.61000037 1.0786889e-38
0.60539001 0.095013842 0.61022723 1.0786889e-38
0.61490893 0.095254943 0.61000037 1.0786889e-38
0.62525266 0.094710171 0.61029863 1.0786889e-38
0.63517118 0.095006555 0.61000055 1.0786889e-38
0.6440767 0.095084526 0.61000055 1.0786889e-38
0.65474761 0.094995037 0.61032557 1.0786889e-38
0.66525334 0.094827868 0.61000061 1.0786889e-38
0.67462695 0.095127232 0.61000067 1.0786889e-38
0.68444741 0.094926879 0.61000067 1.0786889e-38
0.69442451 0.09518522 0.61000073 1.0786889e-38
0.70418811 0.095028706 0.61000079 1.0786889e-38
0.71427065 0.094609238 0.61000091 1.0786889e-38
0.72449887 0.095133476 0.61000097 1.0786889e-38
0.7350626 0.095400855 0.61000127 1.0786889e-38
0.74516368 0.094790287 0.61000133 1.0786889e-38
0.75474203 0.094743773 0.61000127 1.0786889e-38
0.76420647 0.095216289 0.61000144 1.0786889e-38
0.77536881 0.095491752 0.6100015 1.0786889e-38
0.7848978 0.094269291 0.6100015 1.0786889e-38
0.79475957 0.094748512 0.61000156 1.0786889e-38
0.80474645 0.095233798 0.61000162 1.0786889e-38
0.81487399 0.095725931 0.61000162 1.0786889e-38
0.82534236 0.094490759 0.61000168 1.0786889e-38
0.8340382 0.094611794 0.6100018 1.0786889e-38
0.84456462 0.095109284 0.61000186 1.0786889e-38
0.8552295 0.095613316 0.61000198 1.0786889e-38
0.86449146 0.095008083 0.61000204 1.0786889e-38
0.43765366 0.10637531 0.61021811 1.0786889e-38
0.59457684 0.104877 0.61000037 1.0786889e-38
0.60507214 0.10523604 0.61000043 1.0786889e-38
0.61530805 0.10484553 0.61000037 1.0786889e-38
0.62506682 0.1050582 0.61000055 1.0786889e-38
0.63500971 0.10504385 0.61000049 1.0786889e-38
0.64449364 0.10488746 0.61000055 1.0786889e-38
0.65453023 0.10493908 0.61000061 1.0786889e-38
0.66525334 0.10484169 0.61000061 1.0786889e-38
0.67495519 0.10516679 0.61000067 1.0786889e-38
0.68458313 0.10500066 0.61015284 1.0786889e-38
0.6942482 0.10473875 0.61000073 1.0786889e-38
0.70418805 0.10532763 0.61000079 1.0786889e-38
0.71427077 0.104982 0.61000085 1.0786889e-38
0.72442216 0.10463008 0.61024946 1.0786889e-38
0.73487574 0.1052323 0.61000109 1.0786889e-38
0.74564576 0.10532939 0.61000133 1.0786889e-38
0.75474203 0.10444296 0.61000127 1.0786889e-38
0.76420653 0.10497846 0.61000144 1.0786889e-38
0.77517134 0.10559885 0.6100015 1.0786889e-38
0.7847231 0.10453012 0.6100015 1.0786889e-38
0.79474765 0.10470384 0.61004198 1.0786889e-38
0.80474645 0.10526583 0.61000162 1.0786889e-38
0.81464368 0.10559943 0.61000162 1.0786889e-38
0.82513165 0.10435858 0.61000162 1.0786889e-38
0.83403832 0.1048388 0.61000174 1.0786889e-38
0.8445648 0.10540638 0.61000186 1.0786889e-38
0.85499352 0.10533002 0.61000198 1.0786889e-38
0.86449152 0.10439484 0.61000198 1.0786889e-38
0.59450042 0.1151147 0.61014402 1.0602497e-38
0.60554451 0.11476665 0.61000037 1.0786889e-38
0.61510855 0.11495871 0.61000037 1.0786889e-38
0.62481928 0.11515219 0.61000055 1.0786889e-38
0.63531858 0.11479693 0.61000055 1.0786889e-38
0.64340788 0.11405538 0.61000055 1.0786889e-38
0.6511988 0.11119829 0.61000061 1.0786889e-38
0.69507051 0.11098952 0.61000085 1.0786889e-38
0.70418811 0.11188149 0.61000091 1.0786889e-38
0.71427077 0.11346877 0.61000103 1.0786889e-38
0.72472632 0.11347406 0.61000103 1.0786889e-38
0.73487574 0.11479924 0.61000121 1.0786889e-38
0.7454046 0.11547907 0.61000127 1.0786889e-38
0.75458395 0.11481615 0.61000121 1.0786889e-38
0.76420653 0.11474063 0.61000144 1.0786889e-38
0.77517128 0.11543404 0.61000144 1.0786889e-38
0.7848978 0.11472788 0.6100015 1.0786889e-38
0.79475945 0.11467961 0.61000156 1.0786889e-38
0.80474633 0.11529788 0.61000156 1.0786889e-38
0.81479746 0.11517418 0.61000162 1.0786889e-38
0.82513165 0.11452632 0.61000162 1.0786889e-38
0.83403814 0.11506582 0.61000174 1.0786889e-38
0.84432542 0.11547155 0.61000186 1.0786889e-38
0.85544854 0.1145845 0.61000198 1.0786889e-38
0.86449152 0.11482457 0.61000198 1.0786889e-38
0.35335675 0.12333867 0.61466646 1.0694693e-38
0.54205579 0.12918581 0.61529315 1.0786889e-38
0.59434873 0.12526895 0.61000031 1.0786889e-38
0.60530394 0.12471224 0.61000043 1.0786889e-38
0.61496526 0.12527996 0.61000037 1.0786889e-38
0.62530553 0.12483057 0.61000055 1.0786889e-38
0.63405931 0.12414484 0.61095345 1.0602497e-38
0.73880017 0.12080845 0.61000115 1.0786889e-38
0.74673122 0.12245613 0.61000115 1.0786889e-38
0.75490999 0.12542874 0.61000127 1.0786889e-38
0.76420653 0.12450282 0.61000144 1.0786889e-38
0.77517122 0.12526917 0.6100015 1.0786889e-38
0.78489757 0.12495782 0.6100015 1.0786889e-38
0.79475939 0.12464516 0.61000156 1.0786889e-38
0.80474627 0.1253299 0.61000156 1.0786889e-38
0.81487399 0.1250124 0.61000162 1.0786889e-38
0.82513165 0.12469404 0.61000168 1.0786889e-38
0.83403832 0.12529282 0.61000174 1.0786889e-38
0.84456533 0.12496921 0.61000186 1.0786889e-38
0.85522938 0.12464394 0.61000192 1.0786889e-38
0.86449152 0.1252543 0.61000198 1.0786889e-38
0.35842389 0.13072847 0.6163885 1.0786889e-38
0.59465313 0.13491273 0.61000031 1.0786889e-38
0.605304 0.13515757 0.61000043 1.0786889e-38
0.61526555 0.1348913 0.61000037 1.0786889e-38
0.62472516 0.13482215 0.61103952 1.0418106e-38
0.63178027 0.13212028 0.61000037 1.0786889e-38
0.75571817 0.1352043 0.61000133 1.0786889e-38
0.7640124 0.13452826 0.61000144 1.0786889e-38
0.77517134 0.13510434 0.6100015 1.0786889e-38
0.78489774 0.13518769 0.6100015 1.0786889e-38
0.79475951 0.13461073 0.6100015 1.0786889e-38
0.80474627 0.13536192 0.61000156 1.0786889e-38
0.81495076 0.13485196 0.61000162 1.0786889e-38
0.82513165 0.13486177 0.61000168 1.0786889e-38
0.83403808 0.13551985 0.61000168 1.0786889e-38
0.84480333 0.13447168 0.61000186 1.0786889e-38
0.85522938 0.13501202 0.61000192 1.0786889e-38
0.86426955 0.13536935 0.61000204 1.0786889e-38
0.38225132 0.14807963 0.61613721 1.0694693e-38
0.59472334 0.1447511 0.61000037 1.0786889e-38
0.60507214 0.14526927 0.61000043 1.0786889e-38
0.61510861 0.14477567 0.61000037 1.0786889e-38
0.62427944 0.14508297 0.61067706 1.0786889e-38
0.76505619 0.14373235 0.61000144 1.0786889e-38
0.77517128 0.1449395 0.61000144 1.0786889e-38
0.7850728 0.14539145 0.6100015 1.0786889e-38
0.79475939 0.14457627 0.61000156 1.0786889e-38
0.80474639 0.14539398 0.61000156 1.0786889e-38
0.81487381 0.1447068 0.61000162 1.0786889e-38
0.82524818 0.14508009 0.61050147 1.0786889e-38
0.83382481 0.14543691 0.61000174 1.0786889e-38
0.84456462 0.14453532 0.61000186 1.0786889e-38
0.85550928 0.14517955 0.61041534 1.0786889e-38
0.86473054 0.14468764 0.61000204 1.0786889e-38
0.43835512 0.15097818 0.61470479 1.0786889e-38
0.48216847 0.15657987 0.61828232 1.0786889e-38
0.54656798 0.15464349 0.61915189 1.0786889e-38
0.56222969 0.15075415 0.61865479 1.0786889e-38
0.5850091 0.15491046 0.61040223 1.0786889e-38
0.59457684 0.15494849 0.61000037 1.0786889e-38
0.60538167 0.15499754 0.61000043 1.0786889e-38
0.61507863 0.15500988 0.6103313 1.0786889e-38
0.62530547 0.15487827 0.61000055 1.0786889e-38
0.6335876 0.15717021 0.61000049 1.0786889e-38
0.64199126 0.15891415 0.61000049 1.0786889e-38
0.76761013 0.15164968 0.61000133 1.0786889e-38
0.7751714 0.1547747 0.61000144 1.0786889e-38
0.7848978 0.15564872 0.6100015 1.0786889e-38
0.79475957 0.15454182 0.61000156 1.0786889e-38
0.80474639 0.155426 0.61000156 1.0786889e-38
0.81487387 0.15480623 0.61000162 1.0786889e-38
0.82513165 0.15519723 0.61000162 1.0786889e-38
0.83403838 0.1549498 0.61000174 1.0786889e-38
0.8445648 0.15483241 0.61000186 1.0786889e-38
0.85531139 0.15532929 0.61043662 1.0786889e-38
0.86449152 0.15445754 0.61000198 1.0786889e-38
0.59442979 0.16514254 0.61000037 1.0786889e-38
0.6054529 0.16491844 0.61000043 1.0786889e-38
0.61510885 0.1649448 0.61000037 1.0786889e-38
0.6249128 0.16497339 0.61000055 1.0786889e-38
0.63537687 0.16487773 0.61000055 1.0786889e-38
0.64407676 0.16499215 0.61000055 1.0786889e-38
0.65416121 0.16598314 0.61000061 1.0786889e-38
0.66454434 0.16812691 0.61000061 1.0786889e-38
0.67478353 0.16958745 0.61000073 1.0786889e-38
0.71952814 0.16998652 0.61466223 1.0786889e-38
0.74805629 0.16971643 0.61000121 1.0786889e-38
0.75541395 0.16803919 0.61000127 1.0786889e-38
0.76484179 0.1666062 0.61000144 1.0786889e-38
0.77517128 0.16460986 0.61000144 1.0786889e-38
0.78489774 0.16554864 0.6100015 1.0786889e-38
0.79475957 0.16450736 0.61000156 1.0786889e-38
0.80474627 0.16545804 0.61000156 1.0786889e-38
0.81510353 0.16463576 0.61000162 1.0786889e-38
0.82513165 0.16536497 0.61000162 1.0786889e-38
0.83425128 0.16446686 0.61000174 1.0786889e-38
0.84456474 0.16512947 0.61000186 1.0786889e-38
0.85522974 0.16507803 0.61000198 1.0786889e-38
0.86449152 0.16488726 0.6100021 1.0786889e-38
0.59450358 0.1751516 0.61000037 1.0786889e-38
0.60515457 0.17502981 0.61000043 1.0786889e-38
0.61525154 0.17479938 0.61000037 1.0786889e-38
0.62498754 0.17504106 0.61000049 1.0786889e-38
0.63517123 0.17513572 0.61000055 1.0786889e-38
0.64449382 0.17481679 0.61000055 1.0786889e-38
0.65443271 0.17503202 0.61000061 1.0786889e-38
0.66525328 0.17493854 0.61000061 1.0786889e-38
0.67478359 0.1750876 0.61000067 1.0786889e-38
0.68408239 0.17566 0.61000067 1.0786889e-38
0.69396371 0.17693448 0.61000073 1.0786889e-38
0.70293826 0.17821741 0.61000091 1.0786889e-38
0.71427071 0.17853421 0.61000103 1.0786889e-38
0.72501391 0.17725018 0.61000109 1.0786889e-38
0.73516607 0.17595018 0.61000121 1.0786889e-38
0.74540484 0.17522858 0.61000127 1.0786889e-38
0.7545743 0.17462255 0.61000127 1.0786889e-38
0.76420659 0.17526612 0.61000144 1.0786889e-38
0.77497417 0.17470489 0.61000144 1.0786889e-38
0.78489769 0.17544857 0.6100015 1.0786889e-38
0.79475939 0.17447294 0.61000156 1.0786889e-38
0.80474627 0.17549007 0.61000156 1.0786889e-38
0.81487399 0.17450161 0.61000162 1.0786889e-38
0.82513165 0.17553268 0.61000168 1.0786889e-38
0.83403832 0.17438251 0.6100018 1.0786889e-38
0.84432542 0.17518541 0.61000186 1.0786889e-38
0.8554486 0.17472781 0.61000198 1.0786889e-38
0.86449152 0.175317 0.61000198 1.0786889e-38
0.33832189 0.18932411 0.61009508 7.7444329e-39
0.34419015 0.18321569 0.61764508 1.0786889e-38
0.59465319 0.18498714 0.61000031 1.0786889e-38
0.60522956 0.18512218 0.61000043 1.0786889e-38
0.61510849 0.18511628 0.61000037 1.0786889e-38
0.62530553 0.18492605 0.61000049 1.0786889e-38
0.63500971 0.18516333 0.61000049 1.0786889e-38
0.64413542 0.18492959 0.61000055 1.0786889e-38
0.6549409 0.18494885 0.61000061 1.0786889e-38
0.66508454 0.18519166 0.61000061 1.0786889e-38
0.67462683 0.18495286 0.61000067 1.0786889e-38
0.68462133 0.18514921 0.61000067 1.0786889e-38
0.69390094 0.18489994 0.61022431 1.0786889e-38
0.70418775 0.18490905 0.61000073 1.0786889e-38
0.71427065 0.18513505 0.61000091 1.0786889e-38
0.72426468 0.1849038 0.61000085 1.0786889e-38
0.7350626 0.18534172 0.61000109 1.0786889e-38
0.74540472 0.18486562 0.61000127 1.0786889e-38
0.75474179 0.184945 0.61000121 1.0786889e-38
0.76420653 0.1850283 0.61000144 1.0786889e-38
0.77517122 0.18477057 0.61000144 1.0786889e-38
0.7848978 0.1853485 0.6100015 1.0786889e-38
0.7943781 0.18475093 0.61015791 1.0786889e-38
0.80474627 0.18552211 0.61000156 1.0786889e-38
0.81487399 0.18460107 0.61000162 1.0786889e-38
0.82492071 0.18538676 0.61000162 1.0786889e-38
0.8340382 0.18460955 0.61000168 1.0786889e-38
0.84448534 0.1849547 0.61000186 1.0786889e-38
0.8552295 0.18477878 0.61000192 1.0786889e-38
0.86426955 0.18542497 0.61000204 1.0786889e-38
0.43602926 0.19519229 0.61855489 5.0751205e-39
0.59472334 0.19482824 0.61000037 1.0786889e-38
0.60538167 0.1950403 0.61000043 1.0786889e-38
0.61490881 0.19521427 0.61000037 1.0786889e-38
0.62491286 0.19501224 0.61000049 1.0786889e-38
0.63531864 0.1949349 0.61000055 1.0786889e-38
0.64428562 0.19500221 0.61000055 1.0786889e-38
0.65444165 0.19508161 0.61000061 1.0786889e-38
0.66540748 0.19518307 0.61000061 1.0786889e-38
0.67495525 0.19501382 0.61000067 1.0786889e-38
0.68427378 0.19486584 0.61000067 1.0786889e-38
0.69424766 0.19491354 0.61000067 1.0786889e-38
0.70436716 0.19496298 0.61000085 1.0786889e-38
0.71408957 0.19481146 0.61000091 1.0786889e-38
0.72455996 0.19509311 0.61000091 1.0786889e-38
0.73487574 0.19516148 0.61000109 1.0786889e-38
0.74521559 0.19475469 0.61000127 1.0786889e-38
0.75490993 0.19527082 0.61000127 1.0786889e-38
0.76420641 0.19479048 0.61000144 1.0786889e-38
0.77510518 0.19485544 0.61000144 1.0786889e-38
0.7848978 0.19524838 0.6100015 1.0786889e-38
0.79475945 0.19490092 0.61000156 1.0786889e-38
0.80474645 0.19555415 0.61000156 1.0786889e-38
0.81487387 0.19470051 0.61000162 1.0786889e-38
0.82513165 0.19518898 0.61000162 1.0786889e-38
0.83403808 0.19483656 0.61000174 1.0786889e-38
0.84456474 0.19498901 0.6100018 1.0786889e-38
0.85522944 0.19514687 0.61000192 1.0786889e-38
0.86449182 0.19513205 0.61000204 1.0786889e-38
0.39711079 0.2005432 0.61551178 4.7912819e-39
0.46450004 0.20835617 0.61577284 1.0694693e-38
0.5945769 0.20502004 0.61000037 1.0786889e-38
0.60545284 0.20496336 0.61000043 1.0786889e-38
0.61530811 0.20483516 0.61000037 1.0786889e-38
0.62498754 0.2050816 0.61000049 1.0786889e-38
0.63496548 0.20497313 0.61000055 1.0786889e-38
0.64443469 0.20507841 0.61000055 1.0786889e-38
0.65495026 0.205006 0.61000061 1.0786889e-38
0.66508448 0.20521685 0.61000061 1.0786889e-38
0.67456555 0.20489202 0.61000067 1.0786889e-38
0.6846059 0.20499982 0.61000067 1.0786889e-38
0.69442451 0.20489767 0.61000073 1.0786889e-38
0.70400953 0.20481543 0.61000079 1.0786889e-38
0.71427023 0.20493637 0.61000085 1.0786889e-38
0.72468311 0.20506021 0.61000097 1.0786889e-38
0.7346893 0.20497729 0.61000109 1.0786889e-38
0.74534142 0.20486441 0.61000127 1.0786889e-38
0.75474221 0.20531438 0.61000127 1.0786889e-38
0.7640124 0.20480664 0.61000144 1.0786889e-38
0.77517116 0.20493218 0.61000144 1.0786889e-38
0.7848978 0.20514828 0.6100015 1.0786889e-38
0.79475951 0.20486645 0.6100015 1.0786889e-38
0.80474645 0.20558617 0.61000156 1.0786889e-38
0.81487381 0.20479997 0.61000162 1.0786889e-38
0.82513195 0.20501773 0.61000162 1.0786889e-38
0.83403814 0.20506357 0.6100018 1.0786889e-38
0.84464467 0.20502476 0.61000186 1.0786889e-38
0.8552531 0.20550589 0.6103943 1.0786889e-38
0.86471319 0.20484349 0.61000204 1.0786889e-38
0.35198897 0.21511446 0.61844552 1.0694693e-38
0.56952929 0.21672463 0.61000001 1.0786889e-38
0.59434879 0.21503656 0.61000031 1.0786889e-38
0.60515457 0.21506561 0.61000043 1.0786889e-38
0.61510855 0.21493322 0.61000037 1.0786889e-38
0.62530535 0.21497372 0.61000049 1.0786889e-38
0.63537544 0.21464232 0.61005831 1.0786889e-38
0.64416867 0.21516986 0.6100868 1.0695046e-38
0.65444148 0.21495096 0.61000055 1.0786889e-38
0.66525292 0.21499276 0.61000061 1.0786889e-38
0.67500168 0.2149518 0.61000067 1.0786889e-38
0.6842739 0.21517204 0.61000067 1.0786889e-38
0.69402385 0.21491264 0.61000067 1.0786889e-38
0.70418769 0.21486951 0.61000085 1.0786889e-38
0.71445221 0.21506496 0.61000091 1.0786889e-38
0.72431511 0.21505226 0.61000091 1.0786889e-38
0.73481327 0.21501438 0.61000121 1.0786889e-38
0.7454676 0.21497674 0.61000127 1.0786889e-38
0.75474209 0.21501355 0.61000127 1.0786889e-38
0.76414144 0.21504854 0.61000144 1.0786889e-38
0.77517253 0.21495719 0.61038762 1.0786889e-38
0.78489786 0.21504821 0.6100015 1.0786889e-38
0.79475957 0.21483199 0.61000156 1.0786889e-38
0.80454099 0.21530463 0.61000156 1.0786889e-38
0.81487399 0.21489942 0.61000162 1.0786889e-38
0.82513165 0.21484661 0.61000168 1.0786889e-38
0.83403814 0.21529056 0.61000174 1.0786889e-38
0.84480333 0.21480136 0.61000186 1.0786889e-38
0.85522979 0.21484478 0.61000198 1.0786889e-38
0.86449152 0.21494995 0.61000198 1.0786889e-38
0.54553032 0.22952498 0.61472136 9.2291311e-39
0.56952929 0.22519092 0.61000007 1.0694693e-38
0.59457713 0.22487424 0.61000025 1.0694693e-38
0.60522711 0.2249862 0.61000043 1.0694693e-38
0.61490893 0.22502671 0.61000037 1.0694693e-38
0.62491286 0.22505109 0.61000043 1.0694693e-38
0.63517123 0.22499384 0.61000055 1.0694693e-38
0.64449382 0.22502246 0.61000055 1.0786889e-38
0.65477508 0.22506379 0.61000061 1.0786889e-38
0.66525388 0.22500649 0.61000061 1.0786889e-38
0.67456555 0.22505602 0.61000067 1.0786889e-38
0.68444699 0.22508636 0.61000067 1.0786889e-38
0.69447231 0.22511783 0.61000073 1.0786889e-38
0.70436716 0.22492729 0.61000085 1.0786889e-38
0.71408963 0.22498287 0.61000091 1.0786889e-38
0.72443736 0.2250178 0.61000091 1.0786889e-38
0.73493773 0.22505404 0.61000097 1.0786889e-38
0.74559438 0.22509162 0.61000127 1.0786889e-38
0.75474209 0.22471271 0.61000127 1.0786889e-38
0.76420647 0.2250514 0.61000144 1.0786889e-38
0.77517128 0.22509475 0.61000144 1.0786889e-38
0.78489774 0.22494811 0.6100015 1.0786889e-38
0.79475933 0.22479756 0.6100015 1.0786889e-38
0.80474627 0.22498015 0.61000156 1.0786889e-38
0.81487387 0.22499886 0.61000162 1.0786889e-38
0.82534236 0.22465566 0.61000168 1.0786889e-38
0.83382469 0.22519656 0.61000174 1.0786889e-38
0.84456474 0.22485261 0.61000186 1.0786889e-38
0.8552295 0.22486733 0.61000192 1.0786889e-38
0.86449152 0.22537974 0.61000216 1.0786889e-38
0.39062229 0.23068793 0.61763859 1.0694693e-38
0.55774796 0.23334809 0.61677706 1.0694693e-38
0.56952929 0.23535049 0.61000007 1.0694693e-38
0.59465045 0.23488899 0.61000025 1.0694693e-38
0.60537887 0.23490895 0.61000043 1.0694693e-38
0.61515629 0.23488115 0.61000043 1.0694693e-38
0.62498772 0.23512213 0.61000049 1.0694693e-38
0.63489032 0.23533291 0.61016756 1.0694693e-38
0.64388239 0.23477288 0.61030054 1.0602851e-38
0.65460443 0.23500061 0.61000061 1.0694693e-38
0.6652531 0.23502041 0.61000061 1.0694693e-38
0.67500168 0.23512226 0.61000067 1.0694693e-38
0.68462139 0.2350042 0.61000073 1.0694693e-38
0.69407207 0.2351277 0.61000073 1.0694693e-38
0.7039606 0.23500772 0.61000085 1.0694693e-38
0.71421003 0.23487781 0.61000091 1.0694693e-38
0.7245599 0.2349858 0.61000091 1.0694693e-38
0.7350626 0.23509623 0.61000115 1.0694693e-38
0.74540478 0.23497808 0.61000127 1.0786889e-38
0.75457436 0.23475051 0.61000127 1.0786889e-38
0.76427108 0.2350557 0.61000144 1.0786889e-38
0.77536881 0.2351698 0.61000144 1.0786889e-38
0.78489774 0.23484801 0.6100015 1.0786889e-38
0.79475957 0.23476315 0.61000156 1.0786889e-38
0.80474639 0.23501219 0.61000156 1.0786889e-38
0.81487399 0.23509827 0.61000162 1.0786889e-38
0.82513165 0.23450552 0.61000162 1.0786889e-38
0.8340382 0.23506148 0.61000174 1.0786889e-38
0.84456474 0.2351497 0.61000186 1.0786889e-38
0.85544854 0.2348711 0.61000198 1.0786889e-38
0.86426955 0.23548056 0.61000204 1.0786889e-38
0.56952929 0.24551003 0.61000007 1.0694693e-38
0.5947234 0.24490544 0.61000025 1.0694693e-38
0.60545295 0.2450083 0.61000043 1.0694693e-38
0.61495113 0.24459691 0.61000031 1.0694693e-38
0.6252262 0.24254574 0.61000043 1.0694693e-38
0.63562363 0.24233997 0.61000049 1.0694693e-38
0.64438987 0.24228334 0.61000055 1.0694693e-38
0.65500295 0.24263956 0.61000061 1.0694693e-38
0.66568959 0.24443564 0.61000061 1.0694693e-38
0.67460531 0.24498242 0.61021906 1.0694693e-38
0.68422616 0.24494033 0.61000067 1.0694693e-38
0.69424766 0.24511458 0.61000067 1.0694693e-38
0.70424747 0.24506217 0.61000079 1.0694693e-38
0.71450144 0.24500675 0.61000085 1.0694693e-38
0.72468305 0.24495636 0.61000091 1.0694693e-38
0.73487574 0.2449095 0.61000121 1.0694693e-38
0.74521548 0.24486062 0.61000127 1.0694693e-38
0.75474191 0.24507986 0.61000127 1.0694693e-38
0.76428849 0.24496633 0.61045712 1.0694693e-38
0.77517134 0.24525818 0.61000144 1.0694693e-38
0.78489786 0.24474792 0.6100015 1.0694693e-38
0.7946918 0.24497943 0.6100015 1.0694693e-38
0.80474627 0.24504423 0.61000156 1.0694693e-38
0.81487381 0.24519777 0.61000162 1.0694693e-38
0.8253507 0.24457753 0.61032403 1.0694693e-38
0.83403862 0.24494755 0.61000192 1.0694693e-38
0.84432542 0.24519479 0.6100018 1.0694693e-38
0.8552295 0.24491364 0.61000192 1.0786889e-38
0.86449182 0.24519478 0.61000204 1.0786889e-38
0.378714 0.25981212 0.61449784 1.0694693e-38
0.56952929 0.25566959 0.61000007 1.0694693e-38
0.59442985 0.2549158 0.61000019 1.0694693e-38
0.60461128 0.25456166 0.61000037 1.0694693e-38
0.61254817 0.25102726 0.61000025 1.0694693e-38
0.67632526 0.25182351 0.61000067 1.0694693e-38
0.68479502 0.25323409 0.61000073 1.0694693e-38
0.69461823 0.25493866 0.61000073 1.0694693e-38
0.7043671 0.25489157 0.61000079 1.0694693e-38
0.71408957 0.25515428 0.61000091 1.0694693e-38
0.72431511 0.25493816 0.61000091 1.0694693e-38
0.73463821 0.2549589 0.61000121 1.0694693e-38
0.74534142 0.25497472 0.61000127 1.0694693e-38
0.75474209 0.25510228 0.61000127 1.0694693e-38
0.76440114 0.25506723 0.61000144 1.0694693e-38
0.77517128 0.25509337 0.61000144 1.0694693e-38
0.7848978 0.25464785 0.6100015 1.0694693e-38
0.79475933 0.25519204 0.61000156 1.0694693e-38
0.80474627 0.25507626 0.61000156 1.0694693e-38
0.81464368 0.25504854 0.61000162 1.0694693e-38
0.82513165 0.254841 0.61000162 1.0694693e-38
0.83403802 0.25483373 0.61000174 1.0694693e-38
0.84448546 0.25497133 0.6100018 1.0694693e-38
0.8552295 0.25528172 0.61000192 1.0694693e-38
0.86471319 0.2549133 0.61000204 1.0694693e-38
0.56952929 0.26498249 0.61000001 1.0694693e-38
0.59417737 0.26456866 0.61015856 1.0602493e-38
0.60170227 0.26129082 0.61000019 1.0694693e-38
0.70460576 0.26206809 0.61000091 1.0694693e-38
0.71447086 0.26457742 0.61000091 1.0694693e-38
0.72443736 0.26490712 0.61000097 1.0694693e-38
0.73487574 0.26499832 0.61000097 1.0694693e-38
0.7454676 0.26509145 0.61000127 1.0694693e-38
0.75490999 0.26511294 0.61000121 1.0694693e-38
0.76432145 0.26484904 0.61005276 1.0694693e-38
0.7751714 0.26492852 0.61000144 1.0694693e-38
0.78517628 0.26458842 0.61049819 1.0694693e-38
0.79475927 0.26515761 0.61000156 1.0694693e-38
0.80474627 0.26510826 0.61000156 1.0694693e-38
0.81487399 0.26489016 0.61000168 1.0694693e-38
0.82513165 0.26500869 0.61000162 1.0694693e-38
0.8342514 0.26470551 0.61000174 1.0694693e-38
0.84456474 0.26500919 0.61000186 1.0694693e-38
0.85501009 0.26531866 0.61000198 1.0694693e-38
0.86449152 0.26501268 0.61000198 1.0694693e-38
0.56952929 0.27175552 0.61000001 1.0694693e-38
0.5757373 0.27506691 0.61033142 1.0602493e-38
0.5911752 0.27221721 0.61000013 1.0694693e-38
0.72707433 0.27034152 0.61000109 1.0694693e-38
0.7358914 0.27208579 0.61000109 1.0694693e-38
0.745902 0.27409443 0.61000121 1.0694693e-38
0.75474209 0.27514845 0.61000127 1.0694693e-38
0.7640124 0.275085 0.61000144 1.0694693e-38
0.77497429 0.27501023 0.61000144 1.0694693e-38
0.78472304 0.27478853 0.6100015 1.0694693e-38
0.79475957 0.27512318 0.61000156 1.0694693e-38
0.80474645 0.27514029 0.61000156 1.0694693e-38
0.81487381 0.27498966 0.61000162 1.0694693e-38
0.82513165 0.27517647 0.61000168 1.0694693e-38
0.83403808 0.27460727 0.61000168 1.0694693e-38
0.84464467 0.27504861 0.61000186 1.0694693e-38
0.85522979 0.27497965 0.61000192 1.0694693e-38
0.86426955 0.27510789 0.61000204 1.0694693e-38
0.57524449 0.28489116 0.61033672 1.0602493e-38
0.58245009 0.28241694 0.61000001 1.0694693e-38
0.75527894 0.28184 0.61000121 1.0694693e-38
0.76420647 0.28313681 0.61000139 1.0694693e-38
0.77573949 0.28446865 0.61000144 1.0694693e-38
0.78489786 0.28500631 0.6100015 1.0694693e-38
0.79475939 0.28508872 0.61000156 1.0694693e-38
0.80474609 0.28517237 0.61000156 1.0694693e-38
0.81487381 0.28508911 0.61000162 1.0694693e-38
0.82513165 0.28534418 0.61000168 1.0694693e-38
0.83403814 0.28483433 0.6100018 1.0694693e-38
0.84456474 0.28508902 0.61000186 1.0694693e-38
0.85544842 0.2846449 0.61000198 1.0694693e-38
0.86449182 0.28482777 0.61000204 1.0694693e-38
0.56604302 0.29555124 0.6183629 8.3064685e-39
0.57286501 0.29299426 0.61000007 1.0694693e-38
0.78629601 0.29153064 0.6100015 1.0694693e-38
0.79577202 0.29381663 0.61000156 1.0694693e-38
0.80474639 0.29520437 0.61000156 1.0694693e-38
0.81479758 0.29493532 0.61000162 1.0694693e-38
0.82492071 0.29518303 0.61000162 1.0694693e-38
0.83403832 0.29506129 0.61000174 1.0694693e-38
0.84480333 0.29513103 0.6100018 1.0694693e-38
0.8552295 0.29468045 0.61000192 1.0694693e-38
0.86449152 0.29490986 0.61000198 1.0694693e-38
0.35474962 0.30295044 0.61134017 7.7444329e-39
0.55859363 0.30812058 0.61677331 8.3064685e-39
0.56201053 0.30301329 0.61716193 8.3064685e-39
0.8054651 0.30152461 0.61000156 1.0694693e-38
0.81545627 0.30226523 0.61000168 1.0694693e-38
0.82562369 0.30407575 0.61000168 1.0694693e-38
0.83403814 0.30528834 0.61000168 1.0694693e-38
0.84432542 0.30490863 0.61000186 1.0694693e-38
0.85522938 0.30504853 0.61000192 1.0694693e-38
0.86471319 0.30498308 0.61000204 1.0694693e-38
0.54862756 0.3188079 0.61959893 8.3064685e-39
0.55415106 0.31369138 0.61669463 8.3064685e-39
0.8370263 0.31301215 0.61000186 1.0694693e-38
0.8445648 0.31495056 0.61000186 1.0694693e-38
0.85501009 0.31507844 0.61000198 1.0694693e-38
0.86449152 0.31507537 0.61000198 1.0694693e-38
0.5477016 0.32048452 0.61658156 7.3812948e-39
0.84759337 0.32378048 0.61000192 1.0694693e-38
0.85522956 0.32509214 0.61000192 1.0694693e-38
0.86426955 0.32516357 0.61000204 1.0694693e-38
0.42214182 0.33745161 0.61774427 1.0694693e-38
0.84550995 0.33560559 0.61000186 1.0694693e-38
0.85522968 0.33511457 0.61000198 1.0694693e-38
0.86449182 0.33489043 0.61000204 1.0694693e-38
0.37410599 0.34717274 0.61758298 1.0694693e-38
0.57605147 0.34763801 0.61157447 1.0602497e-38
0.8280853 0.34799647 0.61000174 1.0694693e-38
0.83458143 0.34593627 0.61000174 1.0694693e-38
0.84464467 0.34507239 0.61000174 1.0694693e-38
0.8554486 0.34478822 0.61000198 1.0694693e-38
0.86473608 0.34483749 0.61018407 1.0694693e-38
0.44956723 0.35288769 0.61021107 1.0694693e-38
0.58428299 0.35623023 0.61000001 1.0694693e-38
0.59410322 0.35808429 0.61000013 1.0694693e-38
0.81730056 0.35749969 0.61000174 1.0694693e-38
0.82513171 0.35516128 0.61000162 1.0694693e-38
0.83403838 0.35505849 0.61000174 1.0694693e-38
0.84456474 0.35510921 0.61000174 1.0694693e-38
0.85522938 0.3548153 0.61000192 1.0694693e-38
0.86471319 0.3550528 0.61000204 1.0694693e-38
0.40757281 0.36843339 0.6185872 1.0602497e-38
0.59457684 0.36490193 0.61000037 1.0694693e-38
0.60449326 0.36724234 0.61000025 1.0694693e-38
0.61181867 0.36841258 0.61000025 1.0694693e-38
0.80704576 0.36622089 0.61000156 1.0694693e-38
0.81487399 0.36487469 0.61000162 1.0694693e-38
0.8253426 0.3649897 0.61000162 1.0694693e-38
0.83425152 0.36494422 0.61000186 1.0694693e-38
0.84456402 0.36489147 0.6100018 1.0694693e-38
0.85501009 0.36483818 0.61000198 1.0694693e-38
0.86449152 0.36513811 0.61000198 1.0694693e-38
0.59457707 0.37508887 0.61000037 1.0694693e-38
0.60538119 0.37504551 0.61000043 1.0694693e-38
0.61477917 0.37576848 0.61000031 1.0694693e-38
0.62251943 0.37791109 0.61000031 1.0694693e-38
0.79901779 0.37878221 0.61000156 1.0694693e-38
0.80546409 0.37512648 0.61000156 1.0694693e-38
0.81487387 0.37497419 0.61000162 1.0694693e-38
0.82513183 0.37482023 0.61000162 1.0694693e-38
0.83403814 0.37483206 0.6100018 1.0694693e-38
0.84464538 0.37464768 0.61015892 1.0694693e-38
0.85522956 0.37485889 0.61000192 1.0694693e-38
0.86426955 0.37521914 0.61000204 1.0694693e-38
0.5945006 0.38493365 0.61000031 1.0694693e-38
0.60530424 0.38497287 0.61000043 1.0694693e-38
0.61510831 0.38506415 0.61000037 1.0694693e-38
0.62506723 0.38515696 0.61000049 1.0694693e-38
0.63421386 0.38643 0.61000049 1.0694693e-38
0.6408481 0.3894763 0.61000049 1.0694693e-38
0.78699684 0.38831717 0.6100015 1.0694693e-38
0.79534286 0.38529482 0.61000156 1.0694693e-38
0.80474627 0.38482392 0.61000156 1.0694693e-38
0.81487381 0.38507366 0.61000162 1.0694693e-38
0.82513171 0.38498792 0.61000162 1.0694693e-38
0.83403808 0.38505909 0.61000168 1.0694693e-38
0.84456474 0.38497078 0.6100018 1.0694693e-38
0.85522974 0.38488132 0.61000198 1.0694693e-38
0.86449182 0.3849532 0.61000204 1.0694693e-38
0.59457678 0.39494422 0.61000037 1.0694693e-38
0.60522658 0.39489847 0.61000043 1.0694693e-38
0.61506122 0.39492589 0.61000037 1.0694693e-38
0.62498707 0.39523259 0.61000049 1.0694693e-38
0.63522059 0.39482591 0.61000055 1.0694693e-38
0.64412081 0.39506593 0.61000055 1.0694693e-38
0.65369338 0.39750388 0.61000055 1.0694693e-38
0.66170835 0.39881533 0.61000061 1.0694693e-38
0.77839488 0.39720789 0.61000139 1.0694693e-38
0.78509754 0.39555901 0.6100015 1.0694693e-38
0.79475945 0.3947098 0.61000156 1.0694693e-38
0.80474639 0.39485589 0.61000156 1.0694693e-38
0.81487399 0.3951731 0.61000162 1.0694693e-38
0.82513201 0.39515573 0.61000162 1.0694693e-38
0.83382469 0.39494148 0.61000174 1.0694693e-38
0.84448534 0.39500454 0.6100018 1.0694693e-38
0.8552295 0.39490381 0.61000192 1.0694693e-38
0.86449152 0.39503533 0.61000198 1.0694693e-38
0.36603323 0.40025041 0.61313349 1.0694693e-38
0.42283091 0.40363708 0.61135918 1.0694693e-38
0.46472195 0.40904424 0.6161055 1.0694693e-38
0.55634189 0.40584025 0.61157542 1.0602497e-38
0.59465277 0.40495658 0.61000031 1.0694693e-38
0.605304 0.40499249 0.61000043 1.0694693e-38
0.61524683 0.40513578 0.61019307 1.0694693e-38
0.62501854 0.40520725 0.61031038 1.0694693e-38
0.63517088 0.40483817 0.61000055 1.0694693e-38
0.64423555 0.40497726 0.61000055 1.0694693e-38
0.6545189 0.40518969 0.61000055 1.0694693e-38
0.66508454 0.40546885 0.61000061 1.0694693e-38
0.67402053 0.40704724 0.61000067 1.0694693e-38
0.6808024 0.40961421 0.61000073 1.0694693e-38
0.76634365 0.40760741 0.61000127 1.0694693e-38
0.7751714 0.40507817 0.61000144 1.0694693e-38
0.78489774 0.40512645 0.6100015 1.0694693e-38
0.79475933 0.40467542 0.61000156 1.0694693e-38
0.80474627 0.40488794 0.61000156 1.0694693e-38
0.81487381 0.40527257 0.61000162 1.0694693e-38
0.82492077 0.40497938 0.61000168 1.0694693e-38
0.83403808 0.40482998 0.61000168 1.0694693e-38
0.8445648 0.40504956 0.6100018 1.0694693e-38
0.85544842 0.40493149 0.61000192 1.0694693e-38
0.86471319 0.40512267 0.61000204 1.0694693e-38
0.49384278 0.41027817 0.61682928 1.0694693e-38
0.59457695 0.41497338 0.61000019 1.0694693e-38
0.60538113 0.41508824 0.61000043 1.0694693e-38
0.61510843 0.41488111 0.61000037 1.0694693e-38
0.62490779 0.41502532 0.61000043 1.0694693e-38
0.63512218 0.4148494 0.61000055 1.0694693e-38
0.64418101 0.41507578 0.61000055 1.0694693e-38
0.65485764 0.41511801 0.61000061 1.0694693e-38
0.6651969 0.4150362 0.61000061 1.0694693e-38
0.67483586 0.41503534 0.61000067 1.0694693e-38
0.68394637 0.41581464 0.61000073 1.0694693e-38
0.69266123 0.4179779 0.61000079 1.0694693e-38
0.75589341 0.41734338 0.61000127 1.0694693e-38
0.76420659 0.4149262 0.61000144 1.0694693e-38
0.77520317 0.41535953 0.61035919 1.0602497e-38
0.7848978 0.4150264 0.6100015 1.0694693e-38
0.79475939 0.4146409 0.61000156 1.0694693e-38
0.80474633 0.41491997 0.61000156 1.0694693e-38
0.81464386 0.41512564 0.61000162 1.0694693e-38
0.82513183 0.41481197 0.61000162 1.0694693e-38
0.83403808 0.415057 0.6100018 1.0694693e-38
0.84464467 0.41509619 0.61000174 1.0694693e-38
0.85522944 0.41495016 0.61000192 1.0694693e-38
0.86426955 0.41484657 0.61000204 1.0694693e-38
0.36521494 0.42063683 0.61609018 1.0602497e-38
0.59457713 0.42516041 0.61000025 1.0602497e-38
0.60520476 0.42516592 0.61031723 1.0602497e-38
0.61506099 0.42474174 0.61000037 1.0602497e-38
0.62506711 0.42491773 0.61000043 1.0602497e-38
0.63522059 0.42509803 0.61000055 1.0602497e-38
0.64438957 0.42491627 0.61000055 1.0602497e-38
0.65451866 0.42506015 0.61000061 1.0602497e-38
0.66530502 0.42506069 0.61000061 1.0602497e-38
0.67472619 0.42510822 0.61000067 1.0602497e-38
0.68457371 0.42475805 0.61023992 1.0602497e-38
0.69436032 0.42499095 0.61000067 1.0602497e-38
