# .PCD v0.7 - Point Cloud Data file format
VERSION 0.7
FIELDS x y z rgb
SIZE 4 4 4 4
TYPE F F F F
COUNT 1 1 1 1
WIDTH 1003
HEIGHT 1
VIEWPOINT 0 0 0 1 0 0 0
POINTS 1003
DATA ascii
0.66525322 -0.18373871 0.61000073 1.097128e-38
0.67459989 -0.18406269 0.61018068 1.0879084e-38
0.68466848 -0.18523183 0.61000079 1.097128e-38
0.69442421 -0.18507156 0.61000091 1.097128e-38
0.70400953 -0.18515523 0.61000091 1.097128e-38
0.71403974 -0.18499178 0.61000097 1.097128e-38
0.72449833 -0.18505202 0.61000115 1.097128e-38
0.73493767 -0.18488094 0.61000127 1.097128e-38
0.74540454 -0.18519586 0.61000144 1.097128e-38
0.75474197 -0.18459235 0.61000144 1.097128e-38
0.76420647 -0.18495627 0.6100015 1.097128e-38
0.77517128 -0.18502876 0.61000156 1.097128e-38
0.78489769 -0.18490806 0.61000156 1.097128e-38
0.79475915 -0.18478376 0.61000162 1.097128e-38
0.80474627 -0.18499294 0.61000168 1.097128e-38
0.81490529 -0.18515041 0.61032611 1.097128e-38
0.8253423 -0.18472329 0.61000192 1.097128e-38
0.83382469 -0.18528678 0.61000198 1.097128e-38
0.84477597 -0.18482104 0.61034554 1.097128e-38
0.85544831 -0.18464936 0.61000204 1.097128e-38
0.86426926 -0.18522361 0.6100021 1.097128e-38
0.53799599 -0.17495885 0.61910927 7.3829231e-40
0.54839104 -0.17343888 0.61978716 9.8649394e-39
0.60710591 -0.1712146 0.61000037 1.0879084e-38
0.6155476 -0.17222497 0.61000049 1.0879084e-38
0.6253708 -0.173801 0.61000055 1.0879084e-38
0.63517094 -0.17476156 0.61000055 1.0879084e-38
0.6441353 -0.17498866 0.61000061 1.0879084e-38
0.65469056 -0.17492202 0.61000067 1.0879084e-38
0.66546828 -0.17507921 0.61000067 1.0879084e-38
0.67495489 -0.17485073 0.61000073 1.097128e-38
0.68422616 -0.1750969 0.61000067 1.097128e-38
0.6942476 -0.17508437 0.61000085 1.097128e-38
0.70441562 -0.17507242 0.61000085 1.097128e-38
0.71427059 -0.17508221 0.61000097 1.097128e-38
0.72431499 -0.1748509 0.61000121 1.097128e-38
0.73481321 -0.17484096 0.61000127 1.097128e-38
0.74559414 -0.17530863 0.61000133 1.097128e-38
0.75474197 -0.1748932 0.61000144 1.097128e-38
0.76414138 -0.17495322 0.6100015 1.097128e-38
0.77522558 -0.1751076 0.61043745 1.097128e-38
0.78497088 -0.174831 0.61052066 1.097128e-38
0.79475915 -0.1748182 0.61000162 1.097128e-38
0.80454093 -0.17531689 0.61000168 1.097128e-38
0.81487358 -0.17493914 0.61000168 1.097128e-38
0.82513154 -0.17491366 0.61000186 1.097128e-38
0.83403814 -0.17538138 0.61000192 1.097128e-38
0.84480333 -0.17492081 0.61000186 1.097128e-38
0.8552295 -0.17499201 0.61000204 1.097128e-38
0.86449128 -0.17512184 0.61000216 1.097128e-38
0.33423436 -0.16800833 0.6182791 1.0879084e-38
0.445802 -0.16337915 0.61827445 1.0879084e-38
0.54634613 -0.16296537 0.61276007 8.2979668e-39
0.56753254 -0.16118762 0.61488247 6.2700553e-39
0.5764432 -0.16271852 0.61000013 1.0879084e-38
0.58501905 -0.16420056 0.61000031 1.0879084e-38
0.5950675 -0.16454378 0.61000037 1.0879084e-38
0.60538161 -0.16496816 0.61000049 1.0879084e-38
0.61490875 -0.16524364 0.61000055 1.0879084e-38
0.62482768 -0.16497265 0.61000055 1.0879084e-38
0.63517106 -0.16496798 0.61000055 1.0879084e-38
0.64449382 -0.16488488 0.61000061 1.0879084e-38
0.65469193 -0.16498543 0.61000067 1.0879084e-38
0.66503817 -0.16508773 0.61000067 1.0879084e-38
0.67478293 -0.16500406 0.61000067 1.0879084e-38
0.68466848 -0.16491985 0.61000079 1.0879084e-38
0.69407201 -0.16510078 0.61000091 1.097128e-38
0.7039606 -0.16479649 0.61000085 1.097128e-38
0.71450132 -0.16516773 0.61000097 1.097128e-38
0.72449875 -0.16510776 0.61000115 1.097128e-38
0.73468924 -0.16480353 0.61000127 1.097128e-38
0.74546748 -0.16519424 0.61000139 1.097128e-38
0.75474203 -0.16519403 0.61000144 1.097128e-38
0.76401228 -0.16471097 0.61000144 1.097128e-38
0.77523685 -0.16510898 0.61000156 1.097128e-38
0.78489774 -0.16510822 0.61000156 1.097128e-38
0.79475915 -0.16485265 0.61000162 1.097128e-38
0.80474627 -0.16559894 0.61000162 1.097128e-38
0.81487358 -0.16483971 0.61000168 1.097128e-38
0.82513148 -0.16474594 0.61000186 1.097128e-38
0.83403796 -0.16515435 0.61000192 1.097128e-38
0.84456474 -0.16489056 0.61000186 1.097128e-38
0.85500997 -0.1653389 0.61000204 1.097128e-38
0.8644914 -0.16469213 0.61000216 1.097128e-38
0.53387105 -0.15029214 0.6123569 1.0879084e-38
0.54904979 -0.1551929 0.61174893 8.8511546e-39
0.55506295 -0.15507157 0.61135262 8.8511574e-39
0.5650695 -0.15535177 0.61044747 1.0325915e-38
0.57570499 -0.15495382 0.61000037 1.0879084e-38
0.58520567 -0.154741 0.61000037 1.0879084e-38
0.59457695 -0.15497513 0.61000043 1.0879084e-38
0.60522944 -0.15504846 0.61000049 1.0879084e-38
0.61510837 -0.15514773 0.61000055 1.0879084e-38
0.62522012 -0.1548918 0.61000055 1.0879084e-38
0.63533282 -0.15494083 0.61000055 1.0879084e-38
0.6440767 -0.15504973 0.61000061 1.0879084e-38
0.65469068 -0.15504907 0.61000067 1.0879084e-38
0.66546828 -0.15504842 0.61000067 1.0879084e-38
0.67461222 -0.15516081 0.61000073 1.0879084e-38
0.68422616 -0.15479137 0.61000073 1.0879084e-38
0.69447225 -0.15508346 0.61000085 1.0879084e-38
0.70418805 -0.15495418 0.61000091 1.0879084e-38
0.71388984 -0.15492065 0.61018497 1.0879084e-38
0.72473282 -0.15512003 0.61000115 1.0879084e-38
0.73487568 -0.15498818 0.61000127 1.0879084e-38
0.7451635 -0.15485273 0.61000139 1.0879084e-38
0.75474203 -0.15549487 0.61000144 1.097128e-38
0.76420635 -0.15469532 0.6100015 1.097128e-38
0.77517128 -0.15503106 0.61000156 1.097128e-38
0.78489769 -0.15520832 0.61000156 1.097128e-38
0.79475927 -0.15488711 0.61000162 1.097128e-38
0.80474621 -0.15556692 0.61000162 1.097128e-38
0.81487358 -0.15474026 0.61000168 1.097128e-38
0.82513183 -0.15491708 0.61000192 1.097128e-38
0.83403832 -0.15492733 0.61000192 1.097128e-38
0.84464467 -0.15484616 0.61000186 1.097128e-38
0.8552292 -0.15529408 0.61000198 1.097128e-38
0.86471313 -0.15458474 0.6100021 1.097128e-38
0.33916005 -0.14670064 0.61066055 1.0786889e-38
0.37458917 -0.1433358 0.61350673 1.0786889e-38
0.42651427 -0.1415716 0.61046445 1.0879084e-38
0.54938895 -0.14464445 0.61000007 1.0879084e-38
0.56545597 -0.14509563 0.61000001 1.0879084e-38
0.57584721 -0.14490974 0.61000037 1.0879084e-38
0.58511484 -0.14489086 0.61000037 1.0879084e-38
0.59434861 -0.14514199 0.61000043 1.0879084e-38
0.60515445 -0.14495528 0.61000049 1.0879084e-38
0.61525136 -0.14483236 0.61000055 1.0879084e-38
0.62506723 -0.14499871 0.61000055 1.0879084e-38
0.63502324 -0.14516832 0.61000055 1.0879084e-38
0.64443469 -0.14494155 0.61000061 1.0879084e-38
0.65469176 -0.14511243 0.61000067 1.0879084e-38
0.66503805 -0.14506324 0.61000067 1.0879084e-38
0.67493951 -0.14505564 0.61000067 1.0879084e-38
0.68444735 -0.14508563 0.61000073 1.0879084e-38
0.69402355 -0.1448866 0.61000085 1.0879084e-38
0.70441556 -0.14510702 0.61000085 1.0879084e-38
0.71427059 -0.14490694 0.61000097 1.0879084e-38
0.72443724 -0.14492749 0.61000097 1.0879084e-38
0.73506254 -0.14516896 0.61000133 1.0879084e-38
0.74540454 -0.14472038 0.61000133 1.0879084e-38
0.75490993 -0.14545062 0.61000144 1.0879084e-38
0.76420641 -0.14493315 0.6100015 1.0879084e-38
0.77510518 -0.14495455 0.61000156 1.0879084e-38
0.78489769 -0.14530841 0.61000156 1.0879084e-38
0.79475927 -0.14492157 0.61000156 1.0879084e-38
0.80474603 -0.14553489 0.61000162 1.0879084e-38
0.81487358 -0.14464083 0.61000168 1.0879084e-38
0.82492059 -0.14545324 0.61000192 1.0879084e-38
0.83403802 -0.14470032 0.61000192 1.0879084e-38
0.84448534 -0.14507332 0.61000186 1.0879084e-38
0.85522932 -0.144926 0.61000198 1.0879084e-38
0.86425269 -0.14525056 0.6100021 1.097128e-38
0.54938895 -0.13464577 0.61000007 1.0879084e-38
0.56545597 -0.13496862 0.61000019 1.0879084e-38
0.57570487 -0.1348753 0.61000037 1.0879084e-38
0.5850237 -0.13504279 0.61000037 1.0879084e-38
0.59457672 -0.13512091 0.61000043 1.0879084e-38
0.60545295 -0.13484706 0.61000049 1.0879084e-38
0.61529702 -0.13494737 0.61042953 1.0879084e-38
0.6249128 -0.13510929 0.61000055 1.0879084e-38
0.6353184 -0.13490729 0.61000055 1.0879084e-38
0.64412165 -0.13510475 0.61000061 1.0879084e-38
0.65453029 -0.13500233 0.61000067 1.0879084e-38
0.66546822 -0.13501759 0.61000067 1.0879084e-38
0.67461228 -0.13499609 0.61000073 1.0879084e-38
0.68460584 -0.13514934 0.61000079 1.0879084e-38
0.6942479 -0.13511065 0.61000091 1.0879084e-38
0.70396054 -0.13484085 0.61000085 1.0879084e-38
0.71445209 -0.13522719 0.61000097 1.0879084e-38
0.72431499 -0.13496506 0.61000109 1.0879084e-38
0.73493767 -0.13513075 0.61000127 1.0879084e-38
0.7454046 -0.13508336 0.61000144 1.0879084e-38
0.75474179 -0.13512544 0.61000144 1.0879084e-38
0.76420629 -0.13517098 0.6100015 1.0879084e-38
0.77497417 -0.13463841 0.61000156 1.0879084e-38
0.78489774 -0.13540851 0.61000156 1.0879084e-38
0.79455709 -0.13472193 0.61000162 1.0879084e-38
0.80474609 -0.13550285 0.61000168 1.0879084e-38
0.81487358 -0.13454136 0.61000168 1.0879084e-38
0.82513154 -0.13559978 0.61000186 1.0879084e-38
0.83403814 -0.13447331 0.61000192 1.0879084e-38
0.8443253 -0.13530362 0.61000186 1.0879084e-38
0.85522932 -0.13455793 0.61000216 1.0879084e-38
0.86449128 -0.13548888 0.61000216 1.0879084e-38
0.52715385 -0.1233476 0.61387581 1.0879084e-38
0.54938895 -0.12464711 0.61000007 1.0879084e-38
0.56545603 -0.1248416 0.61000019 1.0879084e-38
0.57577634 -0.12483273 0.61000037 1.0879084e-38
0.58493227 -0.12519692 0.61000037 1.0879084e-38
0.59472322 -0.12492623 0.61000043 1.0879084e-38
0.60538155 -0.12492544 0.61000049 1.0879084e-38
0.61496502 -0.12512363 0.61000055 1.0879084e-38
0.62522066 -0.12481513 0.61009854 1.0879084e-38
0.63500965 -0.12513942 0.61000055 1.0879084e-38
0.64428526 -0.12500806 0.61000061 1.0879084e-38
0.65495008 -0.12486634 0.61000067 1.0879084e-38
0.66503817 -0.1250387 0.61000067 1.0879084e-38
0.6750015 -0.12510993 0.61000067 1.0879084e-38
0.68427378 -0.12502153 0.61000079 1.0879084e-38
0.69440866 -0.12510298 0.61000085 1.0879084e-38
0.70418805 -0.12499368 0.61000091 1.0879084e-38
0.71410471 -0.12488166 0.61000097 1.0879084e-38
0.72449875 -0.12521675 0.61000121 1.0879084e-38
0.73463815 -0.1248707 0.61000133 1.0879084e-38
0.7455942 -0.12518957 0.61000139 1.0879084e-38
0.7545743 -0.12480368 0.61000144 1.0879084e-38
0.76420629 -0.12540881 0.61000144 1.0879084e-38
0.77517128 -0.12454388 0.61000156 1.0879084e-38
0.7848978 -0.12550859 0.61000156 1.0879084e-38
0.79475915 -0.12449358 0.61000162 1.0879084e-38
0.80474621 -0.12547083 0.61000168 1.0879084e-38
0.81510311 -0.1246761 0.61000168 1.0879084e-38
0.82513148 -0.12543204 0.61000186 1.0879084e-38
0.83425122 -0.1245582 0.61000198 1.0879084e-38
0.84456462 -0.1252483 0.61000186 1.0879084e-38
0.85544825 -0.12450606 0.61000204 1.0879084e-38
0.8644914 -0.12505916 0.61000216 1.0879084e-38
0.38915038 -0.11646328 0.61036569 1.0786889e-38
0.46202016 -0.11481535 0.61269981 1.0879084e-38
0.54883701 -0.11426086 0.61035758 1.0879084e-38
0.56545597 -0.11471462 0.61000019 1.0879084e-38
0.57570505 -0.11496741 0.61000037 1.0879084e-38
0.58506912 -0.11511568 0.61000037 1.0879084e-38
0.59465039 -0.11491407 0.61000043 1.0879084e-38
0.60507196 -0.11519385 0.61000055 1.0879084e-38
0.61510843 -0.11480715 0.61000055 1.0879084e-38
0.62506723 -0.11495639 0.61000055 1.0879084e-38
0.63517118 -0.11510984 0.61000055 1.0879084e-38
0.64444929 -0.1149077 0.61000061 1.0879084e-38
0.65444148 -0.11495555 0.61000067 1.0879084e-38
0.66546828 -0.11498678 0.61000067 1.0879084e-38
0.67456526 -0.11506463 0.61000067 1.0879084e-38
0.68466848 -0.11506316 0.61000073 1.0879084e-38
0.69407189 -0.11490605 0.61000091 1.0879084e-38
0.70441562 -0.11514167 0.61000085 1.0879084e-38
0.71427059 -0.11473167 0.61000097 1.0879084e-38
0.72473294 -0.11522248 0.61000103 1.0879084e-38
0.73487568 -0.11480709 0.61000127 1.0879084e-38
0.74546742 -0.11507957 0.61000144 1.0879084e-38
0.75474197 -0.11475833 0.61000144 1.0879084e-38
0.76440102 -0.11538519 0.6100015 1.0879084e-38
0.77517122 -0.11470872 0.61000156 1.0879084e-38
0.78489774 -0.11560869 0.61000156 1.0879084e-38
0.79475927 -0.11452804 0.61000156 1.0879084e-38
0.80474609 -0.1154388 0.61000162 1.0879084e-38
0.81487358 -0.11484601 0.61000168 1.0879084e-38
0.8251316 -0.1152643 0.61000186 1.0879084e-38
0.83405048 -0.11536113 0.61005121 1.0879084e-38
0.84456474 -0.11495122 0.61000186 1.0879084e-38
0.8549934 -0.11523584 0.61000204 1.0879084e-38
0.86449116 -0.11462943 0.61000216 1.0879084e-38
0.41156501 -0.10299562 0.61612391 1.0879084e-38
0.47406009 -0.10643391 0.61517066 1.0879084e-38
0.54938895 -0.10464978 0.61000007 1.0879084e-38
0.56559598 -0.10474661 0.61000019 1.0879084e-38
0.57563376 -0.10510375 0.61000037 1.0879084e-38
0.58506918 -0.104832 0.61000037 1.0879084e-38
0.5945012 -0.10508143 0.61000043 1.0879084e-38
0.605304 -0.10508458 0.61000049 1.0879084e-38
0.61526537 -0.10492448 0.61000049 1.0879084e-38
0.62491274 -0.10507046 0.61000055 1.0879084e-38
0.63537687 -0.10484941 0.61000055 1.0879084e-38
0.64413542 -0.10507795 0.61000061 1.0879084e-38
0.65495026 -0.10498957 0.61000067 1.0879084e-38
0.66503805 -0.1050142 0.61000067 1.0879084e-38
0.67500156 -0.10493948 0.61000067 1.0879084e-38
0.68422616 -0.10495058 0.61000073 1.0879084e-38
0.69442433 -0.10511164 0.61000091 1.0879084e-38
0.70396054 -0.10488517 0.61000085 1.0879084e-38
0.71427053 -0.1053019 0.61000097 1.0879084e-38
0.72426468 -0.10481787 0.61000097 1.0879084e-38
0.73487568 -0.10524017 0.61000127 1.0879084e-38
0.74516356 -0.10474861 0.61000139 1.0879084e-38
0.75474203 -0.10505915 0.61000144 1.0879084e-38
0.76427096 -0.10514475 0.6100015 1.0879084e-38
0.77517122 -0.10487356 0.6100015 1.0879084e-38
0.78489769 -0.10570879 0.61000156 1.0879084e-38
0.79475939 -0.10456248 0.61000162 1.0879084e-38
0.80474609 -0.10540676 0.61000162 1.0879084e-38
0.81487358 -0.10474656 0.61000168 1.0879084e-38
0.8251316 -0.10509658 0.61000186 1.0879084e-38
0.83382475 -0.10552714 0.61000198 1.0879084e-38
0.84456462 -0.10465413 0.61000186 1.0879084e-38
0.85522932 -0.10552731 0.61000198 1.0879084e-38
0.86471283 -0.10451496 0.6100021 1.0879084e-38
0.44917035 -0.093855336 0.61528039 1.0879084e-38
0.54938895 -0.094651125 0.61000007 1.0879084e-38
0.55528003 -0.095167592 0.61030549 1.0879084e-38
0.56529987 -0.095484205 0.61000001 1.0879084e-38
0.57548702 -0.096948497 0.61000031 1.0879084e-38
0.58471996 -0.097658731 0.61000019 1.0879084e-38
0.59457499 -0.098861381 0.61000031 1.0879084e-38
0.60602617 -0.098767221 0.61000037 1.0879084e-38
0.61556023 -0.096429162 0.61000049 1.0879084e-38
0.62522006 -0.094800226 0.61000055 1.0879084e-38
0.63496518 -0.095099278 0.61000055 1.0879084e-38
0.64449376 -0.094955586 0.61000061 1.0879084e-38
0.65444142 -0.095086217 0.61000067 1.0879084e-38
0.66546834 -0.094955973 0.61000067 1.0879084e-38
0.67456526 -0.094900586 0.61000067 1.0879084e-38
0.68444735 -0.095236868 0.61000073 1.0879084e-38
0.69408667 -0.094919585 0.61000085 1.0879084e-38
0.70432711 -0.094849765 0.61045867 1.0879084e-38
0.71443594 -0.095147245 0.61000097 1.0879084e-38
0.72449881 -0.094823614 0.61000097 1.0879084e-38
0.7351132 -0.095169909 0.61000133 1.0879084e-38
0.74540454 -0.094607897 0.61000139 1.0879084e-38
0.75474203 -0.095359966 0.61000144 1.0879084e-38
0.76414144 -0.094906926 0.6100015 1.0879084e-38
0.77517134 -0.095038407 0.61000156 1.0879084e-38
0.7850728 -0.095450796 0.61000156 1.0879084e-38
0.79475939 -0.094596937 0.61000156 1.0879084e-38
0.80474609 -0.095374726 0.61000162 1.0879084e-38
0.81495053 -0.094891921 0.61000168 1.0879084e-38
0.8251316 -0.094928853 0.61000186 1.0879084e-38
0.83403814 -0.095610648 0.61000192 1.0879084e-38
0.84480333 -0.094591156 0.61000186 1.0879084e-38
0.85522932 -0.095159218 0.61000198 1.0879084e-38
0.86425269 -0.095195495 0.6100021 1.0879084e-38
0.46604255 -0.083978198 0.61299217 1.0879083e-38
0.52956641 -0.080024272 0.61618084 1.0418466e-38
0.5308435 -0.081466444 0.61996686 1.1616649e-38
0.549389 -0.087985337 0.61000001 1.0879084e-38
0.55370206 -0.088643603 0.61000007 1.0879084e-38
0.61840564 -0.089653797 0.61000049 1.0879084e-38
0.62622577 -0.085704826 0.61039591 1.0879084e-38
0.63517118 -0.084838837 0.61000055 1.0879084e-38
0.6440767 -0.085142069 0.61000061 1.0879084e-38
0.65494061 -0.084932841 0.61000067 1.0879084e-38
0.66503805 -0.084989674 0.61000067 1.0879084e-38
0.67495507 -0.085003719 0.61000073 1.0879084e-38
0.68444735 -0.085082479 0.61000067 1.0879084e-38
0.69416618 -0.084974349 0.61020458 1.0879084e-38
0.70441562 -0.085176341 0.61000085 1.0879084e-38
0.71408951 -0.084811464 0.61000097 1.0879084e-38
0.72449869 -0.085325755 0.61000121 1.0879084e-38
0.73463815 -0.084696256 0.61000133 1.0879084e-38
0.7454046 -0.084970869 0.61000133 1.0879084e-38
0.75491005 -0.085308813 0.61000144 1.0879084e-38
0.76401228 -0.084671736 0.6100015 1.0879084e-38
0.77517116 -0.085203245 0.61000156 1.0879084e-38
0.78489763 -0.085247733 0.61000156 1.0879084e-38
0.79475915 -0.084631376 0.61000156 1.0879084e-38
0.80474609 -0.08534269 0.61000168 1.0879084e-38
0.81487358 -0.085052155 0.61000168 1.0879084e-38
0.82513154 -0.08476112 0.61000186 1.0879084e-38
0.8341884 -0.085152969 0.61004966 1.0879084e-38
0.84464467 -0.084822372 0.61000186 1.0879084e-38
0.85522926 -0.084791154 0.61000198 1.0879084e-38
0.8644914 -0.085426174 0.61000216 1.0879084e-38
0.33284271 -0.073391423 0.6175878 1.0786889e-38
0.52538049 -0.076171778 0.61957216 1.0602856e-38
0.533674 -0.079882279 0.61526364 1.0879084e-38
0.62953228 -0.079955578 0.61000049 1.0879084e-38
0.63630253 -0.076908022 0.61000055 1.0879084e-38
0.64443469 -0.075015299 0.61000061 1.0879084e-38
0.65443236 -0.075036973 0.61000067 1.0879084e-38
0.66546828 -0.074925154 0.61000067 1.0879084e-38
0.67462683 -0.074958496 0.61000067 1.0879084e-38
0.68444741 -0.074928112 0.61000073 1.0879084e-38
0.69447231 -0.075120814 0.61000085 1.0879084e-38
0.70396054 -0.07492952 0.61000085 1.0879084e-38
0.71427059 -0.075126626 0.61000097 1.0879084e-38
0.72466654 -0.075095415 0.61000127 1.0879084e-38
0.73487568 -0.074625976 0.61000127 1.0879084e-38
0.74540448 -0.075333856 0.61000139 1.0879084e-38
0.75474191 -0.074990585 0.61000144 1.0879084e-38
0.76420641 -0.074645497 0.6100015 1.0879084e-38
0.77517122 -0.075368077 0.61000156 1.0879084e-38
0.78489751 -0.075017884 0.61000156 1.0879084e-38
0.79475921 -0.07466583 0.61000156 1.0879084e-38
0.80474609 -0.075310677 0.61000168 1.0879084e-38
0.8147974 -0.075213768 0.61000168 1.0879084e-38
0.82513154 -0.074593395 0.61000186 1.0879084e-38
0.8340382 -0.075156614 0.61000186 1.0879084e-38
0.84422827 -0.075342476 0.61000186 1.0879084e-38
0.85522932 -0.074423082 0.61000198 1.0879084e-38
0.86449146 -0.074996457 0.61000216 1.0879084e-38
0.51104486 -0.060650527 0.61849123 9.1277275e-39
0.64619684 -0.067466237 0.61000061 1.0879084e-38
0.6550234 -0.064996906 0.61000067 1.0879084e-38
0.66492885 -0.065023497 0.61034715 1.0879084e-38
0.67478353 -0.065085731 0.61000073 1.0879084e-38
0.68460578 -0.0649838 0.61000073 1.0879084e-38
0.69402367 -0.064949624 0.61000085 1.0879084e-38
0.70418805 -0.065072685 0.61000091 1.0879084e-38
0.71450138 -0.065195866 0.61000097 1.0879084e-38
0.72431511 -0.064689972 0.61000109 1.0879084e-38
0.73487568 -0.065059051 0.61000127 1.0879084e-38
0.74559414 -0.065432228 0.61000139 1.0879084e-38
0.75457436 -0.064675733 0.61000144 1.0879084e-38
0.76420635 -0.064883329 0.61000144 1.0879084e-38
0.77517122 -0.065532908 0.6100015 1.0879084e-38
0.78472304 -0.064489588 0.61000156 1.0879084e-38
0.79475939 -0.064700268 0.61000156 1.0879084e-38
0.80474609 -0.065278634 0.61000162 1.0879084e-38
0.81487381 -0.065358728 0.61000168 1.0879084e-38
0.8251316 -0.06442567 0.61000186 1.0879084e-38
0.83403808 -0.064929612 0.61000192 1.0879084e-38
0.84456474 -0.065525211 0.61000186 1.0879084e-38
0.85546553 -0.064705461 0.6100021 1.0879084e-38
0.86449146 -0.064566724 0.61000216 1.0879084e-38
0.36595389 -0.058724716 0.61334383 1.0786889e-38
0.4547914 -0.057347897 0.61612588 1.0786889e-38
0.50741029 -0.054179911 0.61551923 9.8652925e-39
0.51022071 -0.059089839 0.61690116 9.3117586e-39
0.65779871 -0.0573713 0.61000067 1.0879084e-38
0.66542244 -0.055128388 0.61000067 1.0879084e-38
0.67478347 -0.055002123 0.61000067 1.0879084e-38
0.68427372 -0.054872826 0.61000079 1.0879084e-38
0.69424796 -0.055160832 0.61000091 1.0879084e-38
0.70435107 -0.054985654 0.61000085 1.0879084e-38
0.7140398 -0.054882109 0.61000097 1.0879084e-38
0.72449887 -0.054932613 0.61000109 1.0879084e-38
0.73487568 -0.055492125 0.61000127 1.0879084e-38
0.74523145 -0.054876827 0.61000139 1.0879084e-38
0.75474209 -0.05462344 0.61000144 1.0879084e-38
0.76420635 -0.055121146 0.6100015 1.0879084e-38
0.77517122 -0.05569775 0.61000156 1.0879084e-38
0.78489774 -0.054229259 0.61000156 1.0879084e-38
0.79475939 -0.054734718 0.61000156 1.0879084e-38
0.80474609 -0.055246603 0.61000162 1.0879084e-38
0.81464338 -0.05554067 0.61000168 1.0879084e-38
0.8251316 -0.054257937 0.61000186 1.0879084e-38
0.8340382 -0.054702587 0.61000186 1.0879084e-38
0.84456474 -0.055228122 0.61000186 1.0879084e-38
0.85500991 -0.055452771 0.61000204 1.0879084e-38
0.86473042 -0.054789804 0.6100021 1.0879084e-38
0.49907333 -0.042278908 0.61993682 1.1708845e-38
0.50382698 -0.047562823 0.6153546 1.1248227e-38
0.66722488 -0.047892038 0.61000079 1.0879084e-38
0.67497265 -0.04512018 0.61000073 1.0879084e-38
0.68462133 -0.045132115 0.61000073 1.0879084e-38
0.69424802 -0.04493469 0.61000085 1.0879084e-38
0.70400953 -0.044733185 0.61000091 1.0879084e-38
0.71427047 -0.044951357 0.61000097 1.0879084e-38
0.72449887 -0.045434754 0.61000109 1.0879084e-38
0.73487568 -0.044968501 0.61000133 1.0879084e-38
0.74540454 -0.044495396 0.61000144 1.0879084e-38
0.75474203 -0.044924274 0.61000144 1.0879084e-38
0.76420635 -0.045358971 0.61000144 1.0879084e-38
0.77542216 -0.04533666 0.6100015 1.0879084e-38
0.78489769 -0.044329349 0.61000156 1.0879084e-38
0.79475921 -0.044769172 0.61000162 1.0879084e-38
0.80474627 -0.045214575 0.61000168 1.0879084e-38
0.8148737 -0.045666255 0.61000168 1.0879084e-38
0.82534224 -0.04438927 0.61000192 1.0879084e-38
0.83403814 -0.04447557 0.61000192 1.0879084e-38
0.84456462 -0.044931032 0.61000186 1.0879084e-38
0.85522926 -0.045392465 0.61000198 1.0879084e-38
0.86426926 -0.045485023 0.6100021 1.0879084e-38
0.49838829 -0.037521165 0.61910629 1.1616648e-38
0.50756103 -0.030136704 0.61528206 8.9426146e-39
0.67742336 -0.03806619 0.61000085 1.0879084e-38
0.68469018 -0.03561122 0.61000073 1.0879084e-38
0.6942479 -0.034708563 0.61000091 1.0879084e-38
0.70418811 -0.03511218 0.61000091 1.0879084e-38
0.71445209 -0.035258811 0.61000097 1.0879084e-38
0.72449875 -0.034987118 0.61000109 1.0879084e-38
0.73487568 -0.034444869 0.61000127 1.0879084e-38
0.7454046 -0.034858383 0.61000139 1.0879084e-38
0.75474197 -0.035225101 0.61000144 1.0879084e-38
0.76420647 -0.035596803 0.61000144 1.0879084e-38
0.77510524 -0.034805663 0.61000156 1.0879084e-38
0.78489774 -0.034429442 0.61000156 1.0879084e-38
0.79475939 -0.034803621 0.61000162 1.0879084e-38
0.80474621 -0.035182547 0.61000168 1.0879084e-38
0.8148737 -0.035566814 0.61000168 1.0879084e-38
0.82456356 -0.035277877 0.61025637 1.0879084e-38
0.83403814 -0.034248553 0.61000192 1.0879084e-38
0.84456456 -0.034633934 0.61000186 1.0879084e-38
0.85522938 -0.03502439 0.6100021 1.0879084e-38
0.8644914 -0.035363477 0.61000216 1.0879084e-38
0.50675762 -0.028338324 0.61938989 1.1247865e-38
0.51553798 -0.020725671 0.61732733 1.0049322e-38
0.68728727 -0.028258791 0.61000091 1.0879084e-38
0.69475561 -0.025975101 0.61000097 1.0879084e-38
0.70418805 -0.024813259 0.61000085 1.0879084e-38
0.71410483 -0.024937773 0.61000097 1.0879084e-38
0.72433603 -0.024328714 0.61003637 1.0879084e-38
0.73487568 -0.024877939 0.61000127 1.0879084e-38
0.74540448 -0.025221359 0.61000139 1.0879084e-38
0.75474209 -0.02552592 0.61000144 1.0879084e-38
0.76445389 -0.025309227 0.6100015 1.0879084e-38
0.77497417 -0.024499286 0.61000156 1.0879084e-38
0.78489769 -0.024529537 0.61000156 1.0879084e-38
0.79475939 -0.024838066 0.61000162 1.0879084e-38
0.80474609 -0.025150515 0.61000168 1.0879084e-38
0.8148737 -0.02546737 0.61000168 1.0879084e-38
0.82513148 -0.025788296 0.61000186 1.0879084e-38
0.83426797 -0.024657167 0.61000192 1.0879084e-38
0.84456474 -0.024336854 0.61000186 1.0879084e-38
0.85522932 -0.024656313 0.61000198 1.0879084e-38
0.86449128 -0.024933748 0.61000216 1.0879084e-38
0.51840967 -0.018404728 0.61724454 1.0326269e-38
0.52444655 -0.013203322 0.61670107 1.0602855e-38
0.6979534 -0.019945174 0.61000103 1.0879084e-38
0.70543939 -0.016419353 0.61000103 1.0879084e-38
0.71427053 -0.014776086 0.61000097 1.0879084e-38
0.72449881 -0.015041617 0.61000121 1.0879084e-38
0.73487568 -0.015311007 0.61000127 1.0879084e-38
0.74540448 -0.015584345 0.61000144 1.0879084e-38
0.7548998 -0.01514557 0.61000144 1.0879084e-38
0.76395899 -0.014645419 0.6100015 1.0879084e-38
0.77517116 -0.014390072 0.6100015 1.0879084e-38
0.7848978 -0.014629629 0.61000156 1.0879084e-38
0.79475939 -0.014872517 0.61000162 1.0879084e-38
0.80474627 -0.015118485 0.61000168 1.0879084e-38
0.8148737 -0.015367922 0.61000162 1.0879084e-38
0.82513154 -0.015620566 0.61000186 1.0879084e-38
0.83382469 -0.015541899 0.61000198 1.0879084e-38
0.84483212 -0.014772139 0.61000192 1.0879084e-38
0.85522932 -0.014288235 0.61000198 1.0879084e-38
0.86449128 -0.014504019 0.61000216 1.0879084e-38
0.35083917 -0.0077308593 0.61050391 1.0786889e-38
0.52866334 -0.0092328452 0.61751884 1.0971279e-38
0.53439891 -0.004194411 0.61729223 1.069397e-38
0.71553832 -0.0053707864 0.61000103 1.0879084e-38
0.72449869 -0.0055437582 0.61000109 1.0879084e-38
0.7351132 -0.0052258787 0.61000133 1.0879084e-38
0.74540454 -0.0049836244 0.61000139 1.0879084e-38
0.75457436 -0.0045477757 0.61000144 1.0879084e-38
0.76408494 -0.0045075468 0.61024749 1.0879084e-38
0.77517122 -0.0045549101 0.6100015 1.0879084e-38
0.78489769 -0.0047297222 0.61000156 1.0879084e-38
0.79475927 -0.0049069603 0.61000156 1.0879084e-38
0.80474621 -0.0050864518 0.61000168 1.0879084e-38
0.81487381 -0.0052684727 0.61000168 1.0879084e-38
0.82513154 -0.0054528355 0.61000186 1.0879084e-38
0.83403808 -0.0056129107 0.61000192 1.0879084e-38
0.84432542 -0.005580381 0.61000186 1.0879084e-38
0.85522932 -0.0049569667 0.61000204 1.0879084e-38
0.8644914 -0.005117265 0.6100021 1.0879084e-38
0.35968354 0.00039454829 0.61636746 1.0786889e-38
0.5456754 0.0058280164 0.61657137 1.1339701e-38
0.55203813 0.0089188702 0.61000001 1.0786889e-38
0.71461636 0.0053642741 0.61000085 1.0879084e-38
0.72449881 0.0049038855 0.61000103 1.0879084e-38
0.73463815 0.0052180481 0.61000133 1.0879084e-38
0.74540454 0.0056170956 0.61000133 1.0879084e-38
0.75474203 0.005511432 0.61000144 1.0879084e-38
0.76420647 0.0054043313 0.61000144 1.0879084e-38
0.77517128 0.0052802525 0.6100015 1.0879084e-38
0.78489769 0.0051701865 0.61000156 1.0879084e-38
0.79475921 0.0050585917 0.61000156 1.0879084e-38
0.80474609 0.0049455781 0.61000168 1.0879084e-38
0.8148737 0.0048309728 0.61000168 1.0879084e-38
0.82513154 0.0047148922 0.61000186 1.0879084e-38
0.83403802 0.0046141054 0.61000192 1.0879084e-38
0.84456474 0.0044949851 0.61000186 1.0879084e-38
0.85522938 0.004374302 0.6100021 1.0879084e-38
0.86449116 0.0042694914 0.61000216 1.0879084e-38
0.549389 0.014501018 0.61000001 1.0786889e-38
0.55488628 0.01537023 0.611251 1.0694332e-38
0.56274599 0.018351611 0.61000007 1.0786889e-38
0.70651257 0.01730953 0.61000103 1.0879084e-38
0.71427065 0.015399186 0.61000097 1.0879084e-38
0.72449869 0.015351528 0.61000121 1.0879084e-38
0.73487568 0.015303175 0.61000127 1.0879084e-38
0.7454046 0.015254115 0.61000139 1.0879084e-38
0.75493747 0.015314803 0.61041802 1.0879084e-38
0.76420641 0.015166508 0.61000144 1.0879084e-38
0.77517134 0.015115415 0.61000156 1.0879084e-38
0.78489763 0.015070094 0.61000156 1.0879084e-38
0.79475915 0.015024143 0.61000156 1.0879084e-38
0.80474597 0.014977607 0.61000162 1.0879084e-38
0.81497282 0.014795493 0.61046559 1.0879084e-38
0.8251316 0.014882621 0.61000186 1.0879084e-38
0.83403808 0.014841122 0.61000192 1.0879084e-38
0.84456474 0.014792072 0.61000186 1.0879084e-38
0.85522938 0.014742378 0.6100021 1.0879084e-38
0.86449116 0.014699222 0.61000216 1.0879084e-38
0.42354611 0.029777864 0.6165213 1.0786889e-38
0.56523079 0.025294138 0.61058593 1.0694332e-38
0.57336724 0.027943244 0.61037153 1.0786889e-38
0.6964069 0.026421607 0.61000103 1.0879084e-38
0.70418799 0.024808824 0.61000091 1.0879084e-38
0.71427053 0.024828957 0.61000091 1.0879084e-38
0.72449881 0.024849385 0.61000097 1.0879084e-38
0.73487568 0.024870105 0.61000127 1.0879084e-38
0.7454046 0.024891136 0.61000139 1.0879084e-38
0.75474203 0.024909783 0.61000144 1.0879084e-38
0.76420653 0.024928683 0.6100015 1.0879084e-38
0.77517128 0.024950577 0.6100015 1.0879084e-38
0.78489769 0.024970002 0.61000156 1.0879084e-38
0.79475915 0.024989694 0.61000156 1.0879084e-38
0.80474609 0.025009638 0.61000162 1.0879084e-38
0.8148737 0.025029864 0.61000168 1.0879084e-38
0.82513154 0.02505035 0.61000186 1.0879084e-38
0.8340382 0.025068134 0.61000192 1.0879084e-38
0.84456474 0.02508916 0.61000186 1.0879084e-38
0.85522938 0.025110457 0.6100021 1.0879084e-38
0.8644914 0.025128949 0.61000216 1.0879084e-38
0.4999342 0.034756389 0.61198366 1.0786889e-38
0.549389 0.031165466 0.61000001 1.0786889e-38
0.56545597 0.035502698 0.61000001 1.0786889e-38
0.57581508 0.035615876 0.610708 1.0786889e-38
0.58341026 0.038090125 0.61246389 1.1063115e-38
0.68566382 0.037705299 0.61000085 1.0786889e-38
0.69424796 0.035015106 0.61000085 1.0786889e-38
0.70418811 0.035107743 0.61000085 1.0879084e-38
0.71427059 0.03520171 0.61000085 1.0879084e-38
0.72431499 0.034616284 0.61000121 1.0879084e-38
0.73487568 0.034437034 0.61000127 1.0879084e-38
0.7454046 0.034528155 0.61000139 1.0879084e-38
0.75474197 0.034608956 0.61000144 1.0879084e-38
0.76420659 0.034690857 0.6100015 1.0879084e-38
0.77517128 0.03478574 0.61000156 1.0879084e-38
0.78489763 0.034869909 0.61000156 1.0879084e-38
0.79475921 0.034955245 0.61000156 1.0879084e-38
0.80474621 0.035041671 0.61000168 1.0879084e-38
0.8148737 0.035129309 0.61000168 1.0879084e-38
0.82513148 0.035218079 0.61000186 1.0879084e-38
0.83403814 0.035295147 0.61000192 1.0879084e-38
0.84476292 0.035194542 0.61034173 1.0786889e-38
0.85522944 0.035478532 0.6100021 1.0879084e-38
0.86449116 0.035558682 0.61000216 1.0879084e-38
0.35975778 0.04016294 0.61794829 0
0.36622393 0.046076566 0.61899686 1.0786889e-38
0.5271402 0.048327304 0.61498737 1.0786889e-38
0.57554632 0.045162834 0.61000007 1.0786889e-38
0.58543152 0.044543039 0.61030978 1.0786889e-38
0.59399742 0.045764897 0.6103819 1.0786889e-38
0.60432029 0.04769944 0.61000037 1.0786889e-38
0.61510843 0.049186066 0.61000037 1.0786889e-38
0.62506676 0.04939156 0.61000043 1.0786889e-38
0.63490641 0.047785442 0.61117446 1.0786889e-38
0.64428508 0.04978814 0.61000061 1.0786889e-38
0.65119874 0.049930803 0.61000067 1.0786889e-38
0.66761929 0.048445802 0.61000073 1.0786889e-38
0.67564029 0.045978099 0.61000073 1.0786889e-38
0.68444735 0.045078151 0.61000085 1.0786889e-38
0.69424796 0.045241255 0.61000091 1.0786889e-38
0.70418805 0.045406666 0.61000091 1.0786889e-38
0.71427059 0.04557446 0.61000097 1.0786889e-38
0.7246666 0.045003481 0.61000121 1.0786889e-38
0.73487568 0.044960663 0.61000133 1.0786889e-38
0.74523139 0.044916034 0.61000139 1.0786889e-38
0.75474209 0.044308133 0.61000144 1.0786889e-38
0.76420647 0.044453032 0.6100015 1.0786889e-38
0.77517116 0.044620909 0.61000156 1.0786889e-38
0.78489769 0.04476982 0.61000156 1.0786889e-38
0.79475921 0.04492081 0.61000156 1.0786889e-38
0.80474609 0.045073699 0.61000162 1.0879084e-38
0.8148737 0.045228753 0.61000168 1.0879084e-38
0.8251316 0.045385811 0.6100018 1.0879084e-38
0.83403802 0.045522168 0.61000192 1.0879084e-38
0.84456474 0.045683321 0.61000186 1.0879084e-38
0.85500991 0.045546424 0.61000204 1.0879084e-38
0.8644914 0.044945434 0.6100021 1.0879084e-38
0.51967216 0.053279869 0.61161149 1.0786889e-38
0.5387342 0.053394079 0.61235625 1.0786529e-38
0.565238 0.055448797 0.61000007 1.0786889e-38
0.57584715 0.05447793 0.61000001 1.0786889e-38
0.58506912 0.054564998 0.61000037 1.0786889e-38
0.59457684 0.054805506 0.61000043 1.0786889e-38
0.60530394 0.055076841 0.61000049 1.0786889e-38
0.61510843 0.055324849 0.61000055 1.0786889e-38
0.62492955 0.055388723 0.61007184 1.0786889e-38
0.63517094 0.054942012 0.61000055 1.0786889e-38
0.64428526 0.055166483 0.61000061 1.0786889e-38
0.65494061 0.054847218 0.61000067 1.0786889e-38
0.66525334 0.054772567 0.61000067 1.0786889e-38
0.67478353 0.055000946 0.61000067 1.0786889e-38
0.68444729 0.055232525 0.61000073 1.0786889e-38
0.69424802 0.054537736 0.61000085 1.0786889e-38
0.70418811 0.05476933 0.61000091 1.0786889e-38
0.71427053 0.055004228 0.61000097 1.0786889e-38
0.72449881 0.055242531 0.61000097 1.0786889e-38
0.73487568 0.055484287 0.61000127 1.0786889e-38
0.7455942 0.055457909 0.61000133 1.0786889e-38
0.75471324 0.05480184 0.61012399 1.0786889e-38
0.7640124 0.054489084 0.61000144 1.0786889e-38
0.7751714 0.054456066 0.61000156 1.0786889e-38
0.78489774 0.054669719 0.61000156 1.0786889e-38
0.79475921 0.05488636 0.61000156 1.0786889e-38
0.80474609 0.055105735 0.61000162 1.0786889e-38
0.81487381 0.055328198 0.61000162 1.0786889e-38
0.8251316 0.055553541 0.6100018 1.0786889e-38
0.8340382 0.055749178 0.61000192 1.0786889e-38
0.84429789 0.055246986 0.61000192 1.0786889e-38
0.85546553 0.054783352 0.61000204 1.0786889e-38
0.86449116 0.054332193 0.61000216 1.0786889e-38
0.57570493 0.064537019 0.61000019 1.0786889e-38
0.58506906 0.064848684 0.61000037 1.0786889e-38
0.59457684 0.065165117 0.61000043 1.0786889e-38
0.60515451 0.065366596 0.61000043 1.0786889e-38
0.61510837 0.064971514 0.61000049 1.0786889e-38
0.62531435 0.06491071 0.61000055 1.0786889e-38
0.635171 0.064735569 0.61000055 1.0786889e-38
0.64428514 0.065026782 0.61000061 1.0786889e-38
0.65453029 0.065197848 0.61000067 1.0786889e-38
0.66525328 0.064786404 0.61000067 1.0786889e-38
0.67478347 0.065084562 0.61000067 1.0786889e-38
0.68444735 0.065386906 0.61000079 1.0786889e-38
0.69424796 0.064763874 0.61000085 1.0786889e-38
0.70412666 0.064872287 0.61002678 1.0786889e-38
0.71408939 0.064697281 0.61000097 1.0786889e-38
0.72449875 0.064740375 0.61000121 1.0786889e-38
0.73487568 0.065051235 0.61000127 1.0786889e-38
0.74540448 0.065366618 0.61000133 1.0786889e-38
0.75474197 0.065646313 0.61000144 1.0786889e-38
0.76438367 0.065170422 0.6100015 1.0786889e-38
0.77517122 0.064291224 0.6100015 1.0786889e-38
0.78489769 0.06456963 0.61000156 1.0786889e-38
0.79475915 0.064851902 0.61000162 1.0786889e-38
0.80474609 0.065137766 0.61000168 1.0786889e-38
0.8148737 0.065427646 0.61000162 1.0786889e-38
0.8251316 0.065721266 0.61000186 1.0786889e-38
0.8338086 0.065339662 0.61000198 1.0786889e-38
0.84480333 0.06444075 0.61000186 1.0786889e-38
0.85522938 0.064509146 0.6100021 1.0786889e-38
0.86449128 0.064761922 0.61000216 1.0786889e-38
0.57570499 0.074745886 0.61000031 1.0786889e-38
0.58506918 0.07513237 0.61000037 1.0786889e-38
0.59442979 0.075369343 0.61000043 1.0786889e-38
0.60547048 0.074902259 0.61000043 1.0786889e-38
0.61510843 0.074618168 0.61000055 1.0786889e-38
0.62506676 0.075015903 0.61000055 1.0786889e-38
0.63502336 0.075219512 0.61000055 1.0786889e-38
0.64428532 0.074887082 0.61000061 1.0786889e-38
0.65487069 0.075093642 0.61000067 1.0786889e-38
0.66525334 0.074800231 0.61000067 1.0786889e-38
0.67478347 0.07516817 0.61000067 1.0786889e-38
0.68444735 0.074618168 0.61000079 1.0786889e-38
0.69424784 0.074990019 0.61000085 1.0786889e-38
0.70418811 0.075367168 0.61000091 1.0786889e-38
0.71443599 0.075017355 0.61000097 1.0786889e-38
0.72433048 0.074974731 0.61000121 1.0786889e-38
0.73487568 0.074618146 0.61000127 1.0786889e-38
0.7454046 0.075003631 0.61000133 1.0786889e-38
0.75474191 0.075345486 0.61000144 1.0786889e-38
0.76420653 0.075691983 0.6100015 1.0786889e-38
0.77492023 0.074653 0.61000156 1.0786889e-38
0.78489769 0.074469544 0.61000156 1.0786889e-38
0.79475915 0.074817456 0.61000156 1.0786889e-38
0.80474627 0.075169794 0.61000168 1.0786889e-38
0.8148737 0.075527087 0.61000168 1.0786889e-38
0.82492059 0.075590484 0.61000192 1.0786889e-38
0.8342514 0.074456684 0.61000198 1.0786889e-38
0.84456462 0.074515164 0.61000186 1.0786889e-38
0.85522932 0.074877217 0.6100021 1.0786889e-38
0.86449128 0.075191647 0.61000216 1.0786889e-38
0.36822903 0.084411517 0.61992282 0
0.38756189 0.080627255 0.61643481 1.0786889e-38
0.39964393 0.083530776 0.61220884 1.0786889e-38
0.49888331 0.083832033 0.61469907 1.0786889e-38
0.57570493 0.084954761 0.61000037 1.0786889e-38
0.58506918 0.085416049 0.61000037 1.0786889e-38
0.59457725 0.085019842 0.61000037 1.0786889e-38
0.60530388 0.084671892 0.61000049 1.0786889e-38
0.61510831 0.085141808 0.61000055 1.0786889e-38
0.62481922 0.0851155 0.61000055 1.0786889e-38
0.63533282 0.084965654 0.61000055 1.0786889e-38
0.64428532 0.084747382 0.61000061 1.0786889e-38
0.6546911 0.085232265 0.61000061 1.0786889e-38
0.66515613 0.084725432 0.61025858 1.0786889e-38
0.67478341 0.085251786 0.61000067 1.0786889e-38
0.68444735 0.084772527 0.61000073 1.0786889e-38
0.69408685 0.08500623 0.61000085 1.0786889e-38
0.70418811 0.084729835 0.61000091 1.0786889e-38
0.71427065 0.085179508 0.61000097 1.0786889e-38
0.72468293 0.085371777 0.61000109 1.0786889e-38
0.73470503 0.084925756 0.61000133 1.0786889e-38
0.7454046 0.084640652 0.61000139 1.0786889e-38
0.75474203 0.08504466 0.61000144 1.0786889e-38
0.76420647 0.085454181 0.61000144 1.0786889e-38
0.77523667 0.085180499 0.61000156 1.0786889e-38
0.78489769 0.084369451 0.61000156 1.0786889e-38
0.79475927 0.084783018 0.61000156 1.0786889e-38
0.8045994 0.08492849 0.61022997 1.0786889e-38
0.8148737 0.085626543 0.61000162 1.0786889e-38
0.82513189 0.085038558 0.61000192 1.0786889e-38
0.83403808 0.084384829 0.61000192 1.0786889e-38
0.84456474 0.084812254 0.61000186 1.0786889e-38
0.85522932 0.085245304 0.61000198 1.0786889e-38
0.86449128 0.085621372 0.61000216 1.0786889e-38
0.44782197 0.096986346 0.61162871 1.0786889e-38
0.57570487 0.095163666 0.61000001 1.0786889e-38
0.5848785 0.095298626 0.61000037 1.0786889e-38
0.59472334 0.094673954 0.61000043 1.0786889e-38
0.60530388 0.095117204 0.61000055 1.0786889e-38
0.61490875 0.095254987 0.61000055 1.0786889e-38
0.62530535 0.094782844 0.61000055 1.0786889e-38
0.635171 0.095006593 0.61000055 1.0786889e-38
0.6439569 0.095003903 0.61031783 1.0786889e-38
0.65469116 0.095168762 0.61000067 1.0786889e-38
0.66525316 0.094827898 0.61000067 1.0786889e-38
0.67462683 0.095127262 0.61000067 1.0786889e-38
0.68444735 0.094926916 0.61000079 1.0786889e-38
0.69442439 0.095185265 0.61000091 1.0786889e-38
0.70418805 0.095028736 0.61000085 1.0786889e-38
0.71427065 0.094609283 0.61000097 1.0786889e-38
0.72449887 0.095133536 0.61000109 1.0786889e-38
0.73506254 0.095400892 0.61000127 1.0786889e-38
0.7451635 0.094790339 0.61000133 1.0786889e-38
0.75474209 0.09474384 0.61000144 1.0786889e-38
0.76420641 0.095216349 0.61000144 1.0786889e-38
0.77536875 0.095491827 0.61000156 1.0786889e-38
0.78489774 0.094269365 0.61000156 1.0786889e-38
0.79475915 0.094748557 0.61000162 1.0786889e-38
0.80474609 0.09523385 0.61000168 1.0786889e-38
0.8148737 0.095725991 0.61000162 1.0786889e-38
0.8253423 0.094490811 0.61000186 1.0786889e-38
0.83403814 0.094611838 0.61000186 1.0786889e-38
0.84456462 0.095109344 0.61000186 1.0786889e-38
0.85522932 0.095613368 0.61000216 1.0786889e-38
0.86449128 0.095008135 0.6100021 1.0786889e-38
0.51194328 0.10791693 0.61174768 1.0786889e-38
0.57570493 0.10537254 0.61000031 1.0786889e-38
0.58525968 0.10467052 0.61000037 1.0786889e-38
0.59457684 0.10487702 0.61000043 1.0786889e-38
0.60507202 0.10523605 0.61000049 1.0786889e-38
0.61530805 0.10484558 0.61000055 1.0786889e-38
0.6250667 0.10505823 0.61000055 1.0786889e-38
0.63500965 0.1050439 0.61000055 1.0786889e-38
0.6444937 0.10488752 0.61000055 1.0786889e-38
0.6546911 0.10510525 0.61000061 1.0786889e-38
0.66525316 0.10484173 0.61000067 1.0786889e-38
0.67495507 0.10516682 0.61000067 1.0786889e-38
0.68444735 0.1050813 0.61000073 1.0786889e-38
0.6942479 0.10473879 0.61000085 1.0786889e-38
0.70418805 0.10532767 0.61000091 1.0786889e-38
0.71427059 0.10498203 0.61000085 1.0786889e-38
0.72449869 0.10463139 0.61000121 1.0786889e-38
0.73487568 0.10523234 0.61000127 1.0786889e-38
0.74564552 0.10532944 0.61000133 1.0786889e-38
0.75474203 0.10444299 0.61000144 1.0786889e-38
0.76420653 0.10497852 0.6100015 1.0786889e-38
0.77496856 0.10561128 0.61013335 1.0786889e-38
0.78472298 0.10453015 0.61000156 1.0786889e-38
0.79475915 0.10471412 0.61000156 1.0786889e-38
0.80450225 0.10510787 0.61060524 1.0786889e-38
0.81464356 0.10559948 0.61000168 1.0786889e-38
0.82513165 0.10435863 0.6100018 1.0786889e-38
0.83403808 0.10483885 0.61000192 1.0786889e-38
0.84456474 0.10540643 0.61000186 1.0786889e-38
0.8549934 0.10533006 0.61000204 1.0786889e-38
0.86449128 0.1043949 0.61000216 1.0786889e-38
0.40243602 0.11035657 0.61506587 1.0786889e-38
0.57556224 0.11542378 0.61000019 1.0786889e-38
0.58506912 0.11455312 0.61000037 1.0786889e-38
0.5945769 0.11523665 0.61000043 1.0786889e-38
0.60554433 0.1147667 0.61000037 1.0786889e-38
0.61510831 0.11495874 0.61000055 1.0786889e-38
0.62481922 0.11515223 0.61000055 1.0786889e-38
0.63531834 0.11479698 0.61000055 1.0786889e-38
0.64428526 0.11522467 0.61000055 1.0786889e-38
0.6546911 0.11504176 0.61000061 1.0786889e-38
0.66525322 0.11485557 0.61000067 1.0786889e-38
0.6746124 0.11483567 0.61000073 1.0786889e-38
0.68444735 0.11523567 0.61000073 1.0786889e-38
0.69424802 0.11496493 0.61000085 1.0786889e-38
0.70418805 0.11469034 0.61000091 1.0786889e-38
0.71427053 0.11535479 0.61000091 1.0786889e-38
0.72433066 0.11486101 0.61000115 1.0786889e-38
0.73487568 0.11479928 0.61000127 1.0786889e-38
0.7454046 0.11547913 0.61000133 1.0786889e-38
0.75458401 0.11481621 0.61000144 1.0786889e-38
0.76420647 0.11474068 0.6100015 1.0786889e-38
0.77517128 0.11543407 0.6100015 1.0786889e-38
0.78489769 0.11472792 0.61000156 1.0786889e-38
0.79475921 0.11467966 0.61000156 1.0786889e-38
0.80474609 0.11529791 0.61000168 1.0786889e-38
0.8147974 0.11517426 0.61000168 1.0786889e-38
0.8251316 0.11452637 0.61000186 1.0786889e-38
0.8340382 0.11506588 0.61000192 1.0786889e-38
0.8443253 0.11547159 0.61000186 1.0786889e-38
0.85544837 0.11458454 0.61000204 1.0786889e-38
0.86449146 0.11482462 0.61000216 1.0786889e-38
0.56539208 0.12506011 0.61024505 1.0786889e-38
0.5756315 0.12511447 0.61000013 1.0786889e-38
0.58511382 0.12479337 0.61035341 1.0786889e-38
0.59434873 0.12526898 0.61000043 1.0786889e-38
0.605304 0.12471224 0.61000049 1.0786889e-38
0.61496496 0.12527999 0.61000055 1.0786889e-38
0.6253134 0.12496483 0.61006951 1.0786889e-38
0.63502318 0.12507215 0.61000055 1.0786889e-38
0.64428526 0.12508498 0.61000055 1.0786889e-38
0.6546911 0.12497825 0.61000061 1.0786889e-38
0.66525322 0.12486941 0.61000067 1.0786889e-38
0.67493993 0.12487998 0.61000067 1.0786889e-38
0.68422616 0.12495322 0.61000067 1.0786889e-38
0.69424808 0.12519106 0.61000091 1.0786889e-38
0.70418811 0.12498927 0.61000085 1.0786889e-38
0.71427059 0.12478454 0.61000097 1.0786889e-38
0.72468293 0.12526794 0.61000109 1.0786889e-38
0.73468924 0.12462553 0.61000127 1.0786889e-38
0.74520385 0.12521109 0.61024618 1.0786889e-38
0.75490999 0.12542877 0.61000144 1.0786889e-38
0.76420647 0.12450286 0.61000144 1.0786889e-38
0.77517122 0.12526923 0.61000156 1.0786889e-38
0.78477442 0.12488435 0.61025852 1.0786889e-38
0.79475915 0.1246452 0.61000162 1.0786889e-38
0.80474609 0.12532994 0.61000162 1.0786889e-38
0.81487387 0.12501243 0.61000168 1.0786889e-38
0.82513165 0.12469409 0.61000186 1.0786889e-38
0.83390546 0.12552546 0.61047959 1.0786889e-38
0.84456527 0.12496924 0.61000186 1.0786889e-38
0.85522932 0.12464397 0.61000198 1.0786889e-38
0.86449128 0.12525435 0.61000216 1.0786889e-38
0.57577634 0.1348013 0.61000019 1.0786889e-38
0.58506912 0.13512047 0.61000037 1.0786889e-38
0.59465307 0.13491274 0.61000043 1.0786889e-38
0.60530394 0.13515757 0.61000043 1.0786889e-38
0.61526537 0.13489135 0.61000049 1.0786889e-38
0.62506664 0.13510054 0.61000055 1.0786889e-38
0.63533294 0.13482982 0.61000055 1.0786889e-38
0.64428508 0.13494527 0.61000055 1.0786889e-38
0.65451229 0.13510761 0.61000067 1.0786889e-38
0.66525322 0.13488324 0.61000067 1.0786889e-38
0.67461234 0.13500038 0.61000067 1.0786889e-38
0.68466848 0.13505812 0.61000073 1.0786889e-38
0.69402373 0.13497567 0.61000085 1.0786889e-38
0.70418811 0.13528819 0.61000091 1.0786889e-38
0.71410477 0.13493851 0.61000097 1.0786889e-38
0.72449869 0.13502452 0.61000121 1.0786889e-38
0.73504591 0.13511062 0.61000133 1.0786889e-38
0.7454046 0.13475314 0.61000133 1.0786889e-38
0.75474209 0.13548037 0.61000144 1.0786889e-38
0.7640124 0.13452832 0.61000144 1.0786889e-38
0.77517128 0.1351044 0.6100015 1.0786889e-38
0.78489763 0.13518772 0.61000156 1.0786889e-38
0.79475915 0.13461077 0.61000162 1.0786889e-38
0.80474633 0.13536197 0.61000168 1.0786889e-38
0.81495076 0.13485201 0.61000168 1.0786889e-38
0.8251316 0.1348618 0.6100018 1.0786889e-38
0.83403832 0.13551991 0.61000192 1.0786889e-38
0.84480333 0.13447171 0.61000186 1.0786889e-38
0.85522938 0.13501208 0.61000198 1.0786889e-38
0.86426926 0.13536939 0.6100021 1.0786889e-38
0.57584721 0.1446664 0.61000025 1.0786889e-38
0.58493221 0.14520428 0.61000037 1.0786889e-38
0.59472322 0.14475112 0.61000043 1.0786889e-38
0.60507214 0.1452693 0.61000043 1.0786889e-38
0.61510843 0.14477572 0.61000055 1.0786889e-38
0.6248191 0.14518894 0.61000055 1.0786889e-38
0.635171 0.14486474 0.61000055 1.0786889e-38
0.64412153 0.14504611 0.61000055 1.0786889e-38
0.65485168 0.14502098 0.61000067 1.0786889e-38
0.66525322 0.14489707 0.61000067 1.0786889e-38
0.67493975 0.14504951 0.61000067 1.0786889e-38
0.68427372 0.14502338 0.61000079 1.0786889e-38
0.69447225 0.14515522 0.61000085 1.0786889e-38
0.70400953 0.14490205 0.61000091 1.0786889e-38
0.71445221 0.14527573 0.61000097 1.0786889e-38
0.72431505 0.14477724 0.61000109 1.0786889e-38
0.73487568 0.14541344 0.61000127 1.0786889e-38
0.74521554 0.14464876 0.61000133 1.0786889e-38
0.75474203 0.14517954 0.61000144 1.0786889e-38
0.76414144 0.14476402 0.61000144 1.0786889e-38
0.77517134 0.14493956 0.6100015 1.0786889e-38
0.78507268 0.14539149 0.61000156 1.0786889e-38
0.79475915 0.14457631 0.61000162 1.0786889e-38
0.80474627 0.14539401 0.61000162 1.0786889e-38
0.81487381 0.14470685 0.61000168 1.0786889e-38
0.8251316 0.14502956 0.6100018 1.0786889e-38
0.83382475 0.14543696 0.61000198 1.0786889e-38
0.84456474 0.14453535 0.61000186 1.0786889e-38
0.85522932 0.14538015 0.61000198 1.0786889e-38
0.86473024 0.14468768 0.6100021 1.0786889e-38
0.34509891 0.15586585 0.61495239 5.3473465e-39
0.49820885 0.15480666 0.61445475 1.0786889e-38
0.57570487 0.15471543 0.61000025 1.0786889e-38
0.58502376 0.15504847 0.61000037 1.0786889e-38
0.59457684 0.15494853 0.61000043 1.0786889e-38
0.60538161 0.15499762 0.61000043 1.0786889e-38
0.61496496 0.1550937 0.61000055 1.0786889e-38
0.62530535 0.15487833 0.61000055 1.0786889e-38
0.63496536 0.15512268 0.61000055 1.0786889e-38
0.64425141 0.15495329 0.61010832 1.0786889e-38
0.65443242 0.15516287 0.61000061 1.0786889e-38
0.66525328 0.15491088 0.61000067 1.0786889e-38
0.67478353 0.15492043 0.61000067 1.0786889e-38
0.68460584 0.15514542 0.61000079 1.0786889e-38
0.69424808 0.15493985 0.61000091 1.0786889e-38
0.70435107 0.15516815 0.61000085 1.0786889e-38
0.71427047 0.15495983 0.61000091 1.0786889e-38
0.72449833 0.15496884 0.61000115 1.0786889e-38
0.7349661 0.15491949 0.61034584 1.0786889e-38
0.74540424 0.15498964 0.61000133 1.0786889e-38
0.75474209 0.15487871 0.61000144 1.0786889e-38
0.76427096 0.15500237 0.6100015 1.0786889e-38
0.77517116 0.15477476 0.6100015 1.0786889e-38
0.78489769 0.15564877 0.61000156 1.0786889e-38
0.79475915 0.15454188 0.61000156 1.0786889e-38
0.80504787 0.15519881 0.61057436 1.0786889e-38
0.8148737 0.1548063 0.61000168 1.0786889e-38
0.8251316 0.15519729 0.61000174 1.0786889e-38
0.83403832 0.15494986 0.61000198 1.0786889e-38
0.84456474 0.15483245 0.61000186 1.0786889e-38
0.85498703 0.15569593 0.61053503 1.0786889e-38
0.86449128 0.1544576 0.61000216 1.0786889e-38
0.57570499 0.16492434 0.61000007 1.0786889e-38
0.5851149 0.1648948 0.61000037 1.0786889e-38
0.59442973 0.1651426 0.61000043 1.0786889e-38
0.60545295 0.16491844 0.61000043 1.0786889e-38
0.61510873 0.16494483 0.61000055 1.0786889e-38
0.62491262 0.16497342 0.61000055 1.0786889e-38
0.63537687 0.16487777 0.61000055 1.0786889e-38
0.64407659 0.16499221 0.61000055 1.0786889e-38
0.65494061 0.16507225 0.61000061 1.0786889e-38
