# .PCD v0.7 - Point Cloud Data file format
VERSION 0.7
FIELDS x y z rgb
SIZE 4 4 4 4
TYPE F F F F
COUNT 1 1 1 1
WIDTH 961
HEIGHT 1
VIEWPOINT 0 0 0 1 0 0 0
POINTS 961
DATA ascii
2.1554501 0.0037551261 -6.4373016e-06 4.978564e-39
2.164145 0.0051274067 -0.0010168342 4.978564e-39
2.1720991 0.0036664726 -4.8875809e-06 4.978564e-39
2.1847024 0.0035993475 -6.6161156e-06 4.978564e-39
2.1973848 0.0035318099 -6.5565109e-06 4.978564e-39
2.2058959 0.0034864824 -7.0333481e-06 4.978564e-39
2.2144468 0.0034409491 -6.1988831e-06 4.978564e-39
2.2230418 0.0033951765 -6.5565109e-06 4.978564e-39
2.2316785 0.003349185 -6.3180923e-06 4.978564e-39
2.244719 0.0032797423 -5.9008598e-06 4.978564e-39
2.2578497 0.0032098098 -7.6293945e-06 4.978564e-39
2.2666574 0.0031629112 -6.3180923e-06 4.978564e-39
2.2755136 0.0031157415 -7.390976e-06 4.978564e-39
2.2844126 0.0030683512 -7.6293945e-06 4.978564e-39
2.2933543 0.0030207401 -6.5565109e-06 4.978564e-39
2.3023999 0.0024541356 -0.00056511833 4.978564e-39
2.3113761 0.0029247673 -6.1988831e-06 4.978564e-39
2.3250184 0.0028521204 -5.8412552e-06 4.978564e-39
2.3387558 0.0051815812 -6.9538751e-06 4.978564e-39
2.3479774 0.0051386044 -8.3446503e-06 4.978564e-39
2.3572419 0.0050954418 -7.1922937e-06 4.978564e-39
2.3665569 0.0050520333 -7.6293945e-06 4.978564e-39
2.3747904 0.0062376414 -0.0011210978 4.978564e-39
2.3853295 0.0049645603 -7.5896583e-06 4.978564e-39
2.3939958 0.0039053911 -0.0012815211 4.978564e-39
2.4042938 0.0073224441 -6.0796738e-06 4.978564e-39
2.4138553 0.0072842459 -8.225441e-06 4.978564e-39
2.4234595 0.0072458931 -6.3180923e-06 4.978564e-39
2.4331219 0.0072072917 -9.059906e-06 4.978564e-39
2.4428272 0.0071685347 -7.2717667e-06 4.978564e-39
2.4525871 0.0071295532 -7.5101852e-06 4.978564e-39
2.4623961 0.0070903804 -6.5565109e-06 4.978564e-39
2.47226 0.0070509817 -7.390976e-06 4.978564e-39
2.4821732 0.0070113917 -6.4373016e-06 4.978564e-39
2.4921415 0.0069715767 -6.7949295e-06 4.978564e-39
2.5021615 0.0069315573 -6.4373016e-06 4.978564e-39
2.5122371 0.0068913116 -7.2717667e-06 4.978564e-39
2.5223682 0.0068508429 -8.9406967e-06 4.978564e-39
2.5325491 0.0068101822 -7.9870224e-06 4.978564e-39
2.5427845 0.0067693065 -6.9141388e-06 4.978564e-39
2.5530798 0.0067281811 -8.4638596e-06 4.978564e-39
2.5634253 0.0066868667 -7.0333481e-06 4.978564e-39
2.5738316 0.0066453009 -7.9870224e-06 4.978564e-39
2.5842905 0.0066035334 -6.7949295e-06 4.978564e-39
2.5941608 0.0070707146 -0.0028528969 4.978564e-39
2.6053843 0.0065192836 -6.7949295e-06 4.978564e-39
2.6160221 0.0064767888 -8.9406967e-06 4.978564e-39
2.6267128 0.0064340923 -8.1062317e-06 4.978564e-39
2.6374648 0.0063911458 -8.4638596e-06 4.978564e-39
2.6482728 0.0063479845 -7.0333481e-06 4.978564e-39
2.6591461 0.0063045514 -8.4638596e-06 4.978564e-39
2.6700737 0.0062609138 -6.5565109e-06 4.978564e-39
2.6810672 0.0062170038 -7.2717667e-06 4.978564e-39
2.6921208 0.0061728559 -7.2717667e-06 4.978564e-39
2.7032349 0.0061284686 -6.3180923e-06 4.978564e-39
2.7147045 0.0054752394 -0.0012390033 4.978564e-39
2.7256608 0.006038886 -9.7751617e-06 4.978564e-39
2.7369633 0.0059937495 -8.4638596e-06 4.978564e-39
2.7486267 0.0067772656 -0.00060396275 4.978564e-39
2.7597632 0.0059026903 -7.0333481e-06 4.978564e-39
2.7712634 0.0058567566 -7.7486038e-06 4.978564e-39
2.7828271 0.0058105723 -7.2717667e-06 4.978564e-39
2.7944586 0.0057641156 -7.5101852e-06 4.978564e-39
2.8061564 0.0057173953 -7.390976e-06 4.978564e-39
2.8656735 0.0054796794 -8.4638596e-06 4.978564e-39
2.8763676 0.0051433239 -0.0017680409 4.978564e-39
2.9145498 0.0052844686 -7.7486038e-06 4.978564e-39
2.9269514 0.005234933 -8.3446503e-06 4.978564e-39
2.9534247 0.0039089178 -0.0019389424 4.978564e-39
3.0034771 0.0061434484 -0.00059845368 4.978564e-39
3.0288632 0.0048279017 -7.5101852e-06 4.978564e-39
3.1086078 0.0045093978 -8.225441e-06 4.978564e-39
3.1221879 0.0044551576 -8.7022781e-06 4.978564e-39
3.1358478 0.0044006044 -7.2717667e-06 4.978564e-39
3.1495981 0.0043456838 -7.8678131e-06 4.978564e-39
3.1634324 0.0042904299 -7.5101852e-06 4.978564e-39
3.1773574 0.0042348071 -9.2983246e-06 4.978564e-39
3.1913655 0.0041788626 -8.4638596e-06 4.978564e-39
3.2054644 0.0041225492 -9.1791153e-06 4.978564e-39
3.2196486 0.0040659024 -7.6293945e-06 4.978564e-39
3.2339268 0.0040088743 -7.9870224e-06 4.978564e-39
3.2482944 0.0039514885 -7.7486038e-06 4.978564e-39
3.2627547 0.0038937358 -7.6293945e-06 4.978564e-39
3.2773075 0.0038356115 -7.2717667e-06 4.978564e-39
3.2919574 0.0037770974 -8.4638596e-06 4.978564e-39
3.3067024 0.0037182011 -9.894371e-06 4.978564e-39
3.3215382 0.0036589471 -9.2983246e-06 4.978564e-39
3.3364701 0.003599314 -8.4638596e-06 4.978564e-39
3.3515041 0.0035392614 -9.5367432e-06 4.978564e-39
3.3666303 0.003478853 -8.225441e-06 4.978564e-39
3.3818617 0.0034180162 -9.1791153e-06 4.978564e-39
3.3971894 0.0033567995 -8.4638596e-06 4.978564e-39
3.4126208 0.003295165 -8.8214874e-06 4.978564e-39
3.4281495 0.0032331515 -6.7949295e-06 4.978564e-39
3.4437931 0.0031706607 -9.894371e-06 4.978564e-39
3.4595323 0.0062564798 -9.059906e-06 4.978564e-39
3.4753783 0.0062037371 -8.9406967e-06 4.978564e-39
3.4938674 0.0056807809 -0.0040757433 4.978564e-39
3.5073941 0.006097177 -1.001358e-05 4.978564e-39
3.5235622 0.0060433652 -9.4175339e-06 4.978564e-39
3.5398405 0.0059891865 -9.1791153e-06 4.978564e-39
3.5562294 0.0059346389 -8.8214874e-06 4.978564e-39
3.5727332 0.0058797058 -9.5367432e-06 4.978564e-39
3.5893478 0.0058244057 -9.2983246e-06 4.978564e-39
3.6060789 0.0057687201 -9.6559525e-06 4.978564e-39
3.6229231 0.0057126563 -9.6559525e-06 4.978564e-39
3.6398842 0.005656207 -9.059906e-06 4.978564e-39
3.6569638 0.0055993591 -9.059906e-06 4.978564e-39
3.674165 0.0055421051 -9.7751617e-06 4.978564e-39
3.6914816 0.0054844748 -8.3446503e-06 4.978564e-39
3.7089264 0.0054264069 -9.7751617e-06 4.978564e-39
3.7264874 0.0053679626 -8.4638596e-06 4.978564e-39
3.7441797 0.0053090714 -9.6559525e-06 4.978564e-39
3.7619951 0.0052497741 -1.001358e-05 4.978564e-39
3.7799387 0.0051900502 -1.0728836e-05 4.978564e-39
3.7980058 0.0051299203 -9.5367432e-06 4.978564e-39
3.816206 0.0050693434 -9.894371e-06 4.978564e-39
3.8345373 0.0050083287 -1.013279e-05 4.978564e-39
3.8529999 0.00494688 -9.7751617e-06 4.978564e-39
3.8715947 0.0048849937 -8.7022781e-06 4.978564e-39
3.8903303 0.0048226304 -9.6559525e-06 4.978564e-39
3.9091988 0.0047598332 -9.1791153e-06 4.978564e-39
3.9282112 0.0046965498 -1.0609627e-05 4.978564e-39
3.9473593 0.0046328157 -1.0490417e-05 4.978564e-39
3.9666502 0.0045686085 -1.0728836e-05 4.978564e-39
3.9860818 0.0045039337 -1.0251999e-05 4.978564e-39
4.0056591 0.0044387765 -9.894371e-06 4.978564e-39
4.0253849 0.0043731201 -1.0490417e-05 4.978564e-39
4.0452547 0.0043069907 -9.5367432e-06 4.978564e-39
4.0652761 0.0042403527 -9.2983246e-06 4.978564e-39
4.0854516 0.0041731969 -9.894371e-06 4.978564e-39
4.0932655 0.0066775316 -0.0020643447 4.978564e-39
4.1059275 0.0063622263 -0.0016636109 4.978564e-39
4.127532 0.0066813072 -0.00023692437 4.978564e-39
4.1468983 0.003968684 -1.001358e-05 4.978564e-39
4.1676965 0.0038994588 -1.0728836e-05 4.978564e-39
4.1886511 0.003829712 -1.013279e-05 4.978564e-39
4.1995993 0.0054069906 -4.6518358e-06 4.978564e-39
4.2097697 0.0037594251 -9.894371e-06 4.978564e-39
4.2310538 0.0036885813 -1.0371208e-05 4.978564e-39
4.2525029 0.0036171954 -1.0251999e-05 4.978564e-39
4.2741208 0.0035452396 -1.0728836e-05 4.978564e-39
4.2959046 0.0034727417 -9.5367432e-06 4.978564e-39
4.317863 0.0033996534 -9.6559525e-06 4.978564e-39
4.3399987 0.0033259746 -1.0490417e-05 4.978564e-39
4.3623085 0.0032517202 -1.0967255e-05 4.978564e-39
4.3847966 0.0031768698 -1.1444092e-05 4.978564e-39
4.4063244 0.0062083835 -0.00071589777 4.978564e-39
4.4303117 0.0030253809 -1.0848045e-05 4.978564e-39
4.4533458 0.0029487163 -1.0848045e-05 4.978564e-39
4.4765677 0.0028714258 -1.1205673e-05 4.978564e-39
4.4999728 0.0027935281 -9.6559525e-06 4.978564e-39
4.5159473 0.003929818 -0.0027977596 4.978564e-39
4.5235758 0.0027149692 -1.001358e-05 4.978564e-39
4.5473723 0.002635764 -1.0490417e-05 4.978564e-39
4.5713687 0.0025558919 -1.180172e-05 4.978564e-39
4.5955563 0.0024753883 -1.0848045e-05 4.978564e-39
4.6199493 0.0023941994 -1.1444092e-05 4.978564e-39
4.6445427 0.0023123473 -1.0848045e-05 4.978564e-39
4.6693463 0.0022297893 -1.1563301e-05 4.978564e-39
4.6943545 0.0021465551 -1.0967255e-05 4.978564e-39
4.7195783 0.0020626001 -1.1444092e-05 4.978564e-39
4.875505 0.0056348662 -1.1324883e-05 4.978564e-39
1.5486431 0.014493267 -4.529953e-06 4.978564e-39
1.5570881 0.014470777 -5.7220459e-06 4.978564e-39
1.5655781 0.01444817 -6.6757202e-06 4.978564e-39
1.5741229 0.014425419 -5.9604645e-06 4.978564e-39
1.585593 0.014394879 -5.4240227e-06 4.978564e-39
1.5942546 0.014371814 -5.9604645e-06 4.978564e-39
1.6029735 0.014348601 -5.4240227e-06 4.978564e-39
1.6146785 0.014317433 -5.4836273e-06 4.978564e-39
1.626479 0.014286013 -5.0663948e-06 4.978564e-39
1.6353923 0.014262275 -7.1525574e-06 4.978564e-39
1.6443628 0.014238393 -5.6028366e-06 4.978564e-39
1.6564088 0.014206317 -6.0200691e-06 4.978564e-39
1.6655054 0.014182094 -6.3180923e-06 4.978564e-39
1.6746643 0.014157709 -5.7816505e-06 4.978564e-39
1.6838754 0.014133181 -6.3180923e-06 4.978564e-39
1.6931484 0.014108495 -5.0663948e-06 4.978564e-39
1.7056022 0.014075332 -5.7816505e-06 4.978564e-39
1.7150074 0.014050288 -5.9604645e-06 4.978564e-39
1.7244788 0.014025069 -5.8412552e-06 4.978564e-39
1.7340053 0.01599976 -7.1525574e-06 4.978564e-39
1.7435967 0.015980607 -6.1392784e-06 4.978564e-39
1.7564758 0.015954891 -4.4107437e-06 4.978564e-39
1.7662061 0.01593546 -4.7683716e-06 4.978564e-39
1.7760072 0.015915884 -5.7220459e-06 4.978564e-39
1.7858629 0.015896203 -5.6028366e-06 4.978564e-39
1.7957901 0.015876377 -5.543232e-06 4.978564e-39
1.805776 0.015856434 -6.4373016e-06 4.978564e-39
1.8158312 0.015836356 -4.9471855e-06 4.978564e-39
1.8259491 0.015816147 -6.4373016e-06 4.978564e-39
1.8361368 0.015795805 -5.0067902e-06 4.978564e-39
1.846388 0.015775332 -6.1988831e-06 4.978564e-39
1.8532624 0.015761601 -7.1525574e-06 4.978564e-39
1.8636309 0.015740899 -5.543232e-06 4.978564e-39
1.8740612 0.015720071 -4.2915344e-06 4.978564e-39
1.8845725 0.015699077 -5.6624413e-06 4.978564e-39
1.8951451 0.015677962 -5.8412552e-06 4.978564e-39
1.9057956 0.015656693 -5.364418e-06 4.978564e-39
1.9165121 0.015635289 -6.6757202e-06 4.978564e-39
1.9236962 0.015620948 -4.8875809e-06 4.978564e-39
1.9345412 0.015599289 -5.3048134e-06 4.978564e-39
1.9454516 0.0155775 -5.4836273e-06 4.978564e-39
1.9527684 0.015562889 -5.0067902e-06 4.978564e-39
1.9638132 0.015540831 -6.0995421e-06 4.978564e-39
1.974923 0.015518646 -5.4836273e-06 4.978564e-39
1.9861193 0.015496285 -5.9008598e-06 4.978564e-39
1.9973844 0.015473788 -6.0796738e-06 4.978564e-39
2.00494 0.0154587 -5.7220459e-06 4.978564e-39
2.0125308 0.015443541 -5.6028366e-06 4.978564e-39
2.0355177 0.015397633 -6.2386193e-06 4.978564e-39
2.0432525 0.015382188 -7.0333481e-06 4.978564e-39
2.0666714 0.015335419 -6.7949295e-06 4.978564e-39
2.0745533 0.015319678 -7.7486038e-06 4.978564e-39
2.0824678 0.015303876 -5.8412552e-06 4.978564e-39
2.1064472 0.015255987 -6.0002008e-06 4.978564e-39
2.1145194 0.015239867 -7.6691313e-06 4.978564e-39
2.1226256 0.015223678 -6.6757202e-06 4.978564e-39
2.1471846 0.015174635 -6.7154565e-06 4.978564e-39
2.1554501 0.015158128 -6.4373016e-06 4.978564e-39
2.1637552 0.015141546 -6.1591468e-06 4.978564e-39
2.1732125 0.015932277 -0.0013020741 4.978564e-39
2.197386 0.01507438 -7.3512397e-06 4.978564e-39
2.2058959 0.015057385 -7.0333481e-06 4.978564e-39
2.2144482 0.015040307 -7.0730844e-06 4.978564e-39
2.2230418 0.015023146 -6.5565109e-06 4.978564e-39
2.2316797 0.015005895 -7.1128211e-06 4.978564e-39
2.2447197 0.014979855 -6.298224e-06 4.978564e-39
2.2578459 0.014953643 -5.364418e-06 4.978564e-39
2.2666595 0.014936037 -7.5101852e-06 4.978564e-39
2.2755136 0.014918354 -7.390976e-06 4.978564e-39
2.2844145 0.014900577 -8.8214874e-06 4.978564e-39
2.2933543 0.014882729 -6.5565109e-06 4.978564e-39
2.3023446 0.014864773 -7.5101852e-06 4.978564e-39
2.3113761 0.014846739 -6.1988831e-06 4.978564e-39
2.338757 0.017194677 -7.7486038e-06 4.978564e-39
2.3479774 0.017182402 -8.3446503e-06 4.978564e-39
2.3572433 0.017170068 -7.9870224e-06 4.978564e-39
2.3665569 0.017157666 -7.6293945e-06 4.978564e-39
2.3759201 0.0171452 -8.225441e-06 4.978564e-39
2.3853295 0.017132673 -7.6293945e-06 4.978564e-39
2.3947904 0.017120076 -8.7022781e-06 4.978564e-39
2.4042938 0.017107427 -6.0796738e-06 4.978564e-39
2.4138553 0.017094694 -8.225441e-06 4.978564e-39
2.4234595 0.017081911 -6.3180923e-06 4.978564e-39
2.433121 0.017069045 -8.5234642e-06 4.978564e-39
2.4444366 0.015596052 -0.0011446772 4.978564e-39
2.4525871 0.017043129 -7.5101852e-06 4.978564e-39
2.4623961 0.017030071 -6.5565109e-06 4.978564e-39
2.47226 0.01701694 -7.390976e-06 4.978564e-39
2.4821732 0.017003741 -6.4373016e-06 4.978564e-39
2.4921415 0.01699047 -6.7949295e-06 4.978564e-39
2.5021615 0.01697713 -6.4373016e-06 4.978564e-39
2.5122371 0.016963715 -7.2717667e-06 4.978564e-39
2.5223663 0.016950227 -7.8082085e-06 4.978564e-39
2.5325491 0.016936671 -7.9870224e-06 4.978564e-39
2.5420511 0.01746594 -0.0031358527 4.978564e-39
2.5530798 0.016909339 -8.4638596e-06 4.978564e-39
2.5634253 0.016895566 -7.0333481e-06 4.978564e-39
2.5738316 0.01688171 -7.9870224e-06 4.978564e-39
2.5842905 0.016867787 -6.7949295e-06 4.978564e-39
2.5948119 0.016853776 -8.5830688e-06 4.978564e-39
2.6053843 0.016839702 -6.7949295e-06 4.978564e-39
2.6160212 0.016825538 -8.3446503e-06 4.978564e-39
2.6267128 0.016811306 -8.1062317e-06 4.978564e-39
2.6374648 0.016796989 -8.4638596e-06 4.978564e-39
2.6466444 0.017100124 -0.00091855548 4.978564e-39
2.6591461 0.016768124 -8.4638596e-06 4.978564e-39
2.6700737 0.016753577 -6.5565109e-06 4.978564e-39
2.6810672 0.01673894 -7.2717667e-06 4.978564e-39
2.6921208 0.016724225 -7.2717667e-06 4.978564e-39
2.7032349 0.016709428 -6.3180923e-06 4.978564e-39
2.7144134 0.016694546 -6.5565109e-06 4.978564e-39
2.7256608 0.016679568 -9.7751617e-06 4.978564e-39
2.7369633 0.016664522 -8.4638596e-06 4.978564e-39
2.7483327 0.016649384 -8.7022781e-06 4.978564e-39
2.7597632 0.01663417 -7.0333481e-06 4.978564e-39
2.7712634 0.016618857 -7.7486038e-06 4.978564e-39
2.7828271 0.016603462 -7.2717667e-06 4.978564e-39
2.7944586 0.016587976 -7.5101852e-06 4.978564e-39
2.8061564 0.016572401 -7.390976e-06 4.978564e-39
2.8179221 0.016556738 -7.5101852e-06 4.978564e-39
2.8297565 0.016540982 -7.8678131e-06 4.978564e-39
2.8416615 0.016525131 -9.059906e-06 4.978564e-39
2.8536308 0.016509196 -7.9870224e-06 4.978564e-39
2.8656735 0.016493162 -8.4638596e-06 4.978564e-39
2.8777833 0.016477041 -7.2717667e-06 4.978564e-39
2.8899665 0.016460821 -7.2717667e-06 4.978564e-39
2.9022214 0.016444504 -7.2717667e-06 4.978564e-39
2.9145498 0.016428091 -7.7486038e-06 4.978564e-39
2.9269505 0.01641158 -7.8678131e-06 4.978564e-39
2.9394276 0.016394969 -9.1791153e-06 4.978564e-39
2.9519727 0.016378269 -7.7486038e-06 4.978564e-39
2.9645991 0.016361456 -8.9406967e-06 4.978564e-39
2.977298 0.016344549 -8.9406967e-06 4.978564e-39
2.9900739 0.016327541 -8.9406967e-06 4.978564e-39
3.0029252 0.016310431 -8.225441e-06 4.978564e-39
3.0158563 0.016293216 -8.4638596e-06 4.978564e-39
3.0288632 0.016275899 -7.5101852e-06 4.978564e-39
3.0419521 0.016258473 -7.9870224e-06 4.978564e-39
3.0551212 0.016240939 -8.3446503e-06 4.978564e-39
3.068373 0.016223295 -9.6559525e-06 4.978564e-39
3.0816991 0.016205555 -7.9870224e-06 4.978564e-39
3.095113 0.016187696 -8.5830688e-06 4.978564e-39
3.1086078 0.016169731 -8.225441e-06 4.978564e-39
3.1221879 0.016151648 -8.7022781e-06 4.978564e-39
3.1358478 0.016133465 -7.2717667e-06 4.978564e-39
3.1495981 0.016115159 -7.8678131e-06 4.978564e-39
3.1634324 0.016096739 -7.5101852e-06 4.978564e-39
3.1773565 0.0160782 -8.7618828e-06 4.978564e-39
3.1913655 0.01605955 -8.4638596e-06 4.978564e-39
3.2054644 0.016040778 -9.1791153e-06 4.978564e-39
3.2196486 0.016021896 -7.6293945e-06 4.978564e-39
3.2339268 0.016002886 -7.9870224e-06 4.978564e-39
3.2482944 0.015983757 -7.7486038e-06 4.978564e-39
3.2627547 0.015964506 -7.6293945e-06 4.978564e-39
3.2773075 0.015945131 -7.2717667e-06 4.978564e-39
3.2919574 0.015925625 -8.4638596e-06 4.978564e-39
3.306699 0.015905997 -8.5234642e-06 4.978564e-39
3.3215382 0.015886242 -9.2983246e-06 4.978564e-39
3.3364701 0.015866362 -8.4638596e-06 4.978564e-39
3.3666303 0.01582621 -8.225441e-06 4.978564e-39
3.3818617 0.01580593 -9.1791153e-06 4.978564e-39
3.3971894 0.015785525 -8.4638596e-06 4.978564e-39
3.4126208 0.01576498 -8.8214874e-06 4.978564e-39
3.4281495 0.015744308 -6.7949295e-06 4.978564e-39
3.4437919 0.015723478 -9.3579292e-06 4.978564e-39
3.4595323 0.015702523 -9.059906e-06 4.978564e-39
3.4753783 0.015681427 -8.9406967e-06 4.978564e-39
3.4913313 0.015660185 -9.1791153e-06 4.978564e-39
3.5073941 0.0156388 -1.001358e-05 4.978564e-39
3.5235622 0.015617276 -9.4175339e-06 4.978564e-39
3.5398405 0.015595604 -9.1791153e-06 4.978564e-39
3.5562294 0.015573785 -8.8214874e-06 4.978564e-39
3.5727332 0.015551811 -9.5367432e-06 4.978564e-39
3.5893435 0.0155297 -7.7486038e-06 4.978564e-39
3.6060789 0.015507416 -9.6559525e-06 4.978564e-39
3.6229243 0.015484989 -1.001358e-05 4.978564e-39
3.6398842 0.015462409 -9.059906e-06 4.978564e-39
3.6569662 0.015439669 -9.894371e-06 4.978564e-39
3.674165 0.015416768 -9.7751617e-06 4.978564e-39
3.6914837 0.015393713 -9.2387199e-06 4.978564e-39
3.7089264 0.015370488 -9.7751617e-06 4.978564e-39
3.7264895 0.015347108 -9.2387199e-06 4.978564e-39
3.7441971 0.015951039 -0.00032138207 4.978564e-39
3.7619998 0.015299827 -1.1563301e-05 4.978564e-39
3.7799387 0.015275944 -1.0728836e-05 4.978564e-39
3.7980061 0.015251892 -9.6559525e-06 4.978564e-39
3.800137 0.018064778 -0.002052716 4.978564e-39
3.816206 0.015227661 -9.894371e-06 4.978564e-39
3.8345373 0.015203254 -1.013279e-05 4.978564e-39
3.8529999 0.015178675 -9.7751617e-06 4.978564e-39
3.8715947 0.01515392 -8.7022781e-06 4.978564e-39
3.8903303 0.015128974 -9.6559525e-06 4.978564e-39
3.9091988 0.015103854 -9.1791153e-06 4.978564e-39
3.9282112 0.015078541 -1.0609627e-05 4.978564e-39
3.9473593 0.015053047 -1.0490417e-05 4.978564e-39
3.9666502 0.015027365 -1.0728836e-05 4.978564e-39
3.9860818 0.015001494 -1.0251999e-05 4.978564e-39
4.0046334 0.01473501 -0.0021384589 4.978564e-39
4.0253849 0.014949167 -1.0490417e-05 4.978564e-39
4.0452547 0.014922714 -9.5367432e-06 4.978564e-39
4.0563421 0.012065193 -0.0040896605 4.978564e-39
4.0653987 0.015316215 -0.0015636007 4.978564e-39
4.0854516 0.014869198 -9.894371e-06 4.978564e-39
4.1057796 0.014842133 -1.0490417e-05 4.978564e-39
4.1262603 0.014814867 -1.001358e-05 4.978564e-39
4.1468983 0.014787389 -1.001358e-05 4.978564e-39
4.1676965 0.014759699 -1.0728836e-05 4.978564e-39
4.2492466 0.019188926 -0.0033237902 4.978564e-39
4.2525029 0.014646792 -1.0251999e-05 4.978564e-39
4.2959046 0.01458901 -9.5367432e-06 4.978564e-39
4.317863 0.014559776 -9.6559525e-06 4.978564e-39
4.4074597 0.014440488 -1.001358e-05 4.978564e-39
4.5713687 0.014222264 -1.180172e-05 4.978564e-39
4.7450147 0.017995462 -1.1444092e-05 4.978564e-39
4.7706666 0.017978385 -1.1086464e-05 4.978564e-39
4.7965403 0.017961159 -1.1444092e-05 4.978564e-39
4.8226323 0.017943792 -1.0848045e-05 4.978564e-39
4.8489566 0.017926268 -1.1563301e-05 4.978564e-39
4.875505 0.017908594 -1.1324883e-05 4.978564e-39
1.5486431 0.023876617 -4.529953e-06 4.978564e-39
1.5570883 0.02388224 -5.7220459e-06 4.978564e-39
1.5655781 0.023887893 -6.6757202e-06 4.978564e-39
1.5741229 0.02389358 -5.9604645e-06 4.978564e-39
1.5855929 0.023901215 -5.4240227e-06 4.978564e-39
1.5942546 0.023906982 -5.9604645e-06 4.978564e-39
1.6029735 0.023912782 -5.4240227e-06 4.978564e-39
1.6146785 0.023920575 -5.4836273e-06 4.978564e-39
1.626479 0.023928428 -5.0663948e-06 4.978564e-39
1.6353923 0.023934364 -7.1525574e-06 4.978564e-39
1.6443628 0.023940332 -5.6028366e-06 4.978564e-39
1.6564087 0.023948351 -6.0200691e-06 4.978564e-39
1.6652323 0.025333997 -0.002193908 4.978564e-39
1.6746644 0.023960503 -5.7816505e-06 4.978564e-39
1.6838754 0.023966635 -6.3975654e-06 4.978564e-39
1.6931483 0.023972804 -5.0663948e-06 4.978564e-39
1.7056022 0.023981096 -5.7816505e-06 4.978564e-39
1.7150074 0.023987358 -5.9604645e-06 4.978564e-39
1.7244781 0.023993662 -5.3842864e-06 4.978564e-39
1.7340053 0.026000064 -7.1525574e-06 4.978564e-39
1.7435968 0.02601283 -6.1392784e-06 4.978564e-39
1.7564758 0.026029974 -4.4107437e-06 4.978564e-39
1.7662061 0.026042929 -4.7683716e-06 4.978564e-39
1.7760072 0.02605598 -5.7220459e-06 4.978564e-39
1.7858629 0.026069101 -5.6028366e-06 4.978564e-39
1.7957902 0.026082315 -5.543232e-06 4.978564e-39
1.805776 0.02609561 -6.4373016e-06 4.978564e-39
1.8158312 0.026108995 -4.9471855e-06 4.978564e-39
1.8259491 0.026122466 -6.4373016e-06 4.978564e-39
1.8361368 0.02613603 -5.0067902e-06 4.978564e-39
1.846388 0.026149675 -6.1988831e-06 4.978564e-39
1.8532624 0.026158828 -7.1525574e-06 4.978564e-39
1.8636309 0.026172632 -5.543232e-06 4.978564e-39
1.8740612 0.026186515 -4.2915344e-06 4.978564e-39
1.8845726 0.026200511 -5.6624413e-06 4.978564e-39
1.8951451 0.026214585 -5.8412552e-06 4.978564e-39
1.9057945 0.026228763 -4.529953e-06 4.978564e-39
1.9165123 0.026243033 -6.6757202e-06 4.978564e-39
1.9253942 0.026615744 -0.00074635196 4.978564e-39
1.9345412 0.026267031 -5.3048134e-06 4.978564e-39
1.9454516 0.026281558 -5.4836273e-06 4.978564e-39
1.9527684 0.0262913 -5.0067902e-06 4.978564e-39
1.9638125 0.026306001 -5.6624413e-06 4.978564e-39
1.9749238 0.026320796 -6.1988831e-06 4.978564e-39
1.9851544 0.02645484 -0.00038028357 4.978564e-39
1.9973844 0.026350696 -6.0796738e-06 4.978564e-39
2.004941 0.026360758 -6.377697e-06 4.978564e-39
2.0125308 0.026370861 -5.6028366e-06 4.978564e-39
2.0239892 0.026386118 -6.28829e-06 4.978564e-39
2.035516 0.02640146 -5.2452087e-06 4.978564e-39
2.0432525 0.026411761 -7.0333481e-06 4.978564e-39
2.054925 0.026427301 -6.7353249e-06 4.978564e-39
2.0666733 0.026442941 -7.9870224e-06 4.978564e-39
2.0745533 0.026453434 -7.7486038e-06 4.978564e-39
2.0824697 0.026463971 -7.0333481e-06 4.978564e-39
2.0944197 0.026479879 -6.0796738e-06 4.978564e-39
2.1064465 0.026495889 -5.6028366e-06 4.978564e-39
2.1145196 0.02650664 -7.8678131e-06 4.978564e-39
2.1226256 0.026517428 -6.6757202e-06 4.978564e-39
2.1348653 0.026533725 -6.377697e-06 4.978564e-39
2.1471872 0.026550129 -8.225441e-06 4.978564e-39
2.1554501 0.026561128 -6.4373016e-06 4.978564e-39
2.1643894 0.02631034 -0.0015518483 4.978564e-39
2.1720991 0.026583292 -4.8875809e-06 4.978564e-39
2.1847014 0.026600068 -5.9902668e-06 4.978564e-39
2.1973865 0.026616961 -7.7486038e-06 4.978564e-39
2.2058959 0.026628288 -7.0333481e-06 4.978564e-39
2.2144489 0.026639674 -7.5101852e-06 4.978564e-39
2.2230418 0.026651114 -6.5565109e-06 4.978564e-39
2.2316804 0.026662614 -7.5101852e-06 4.978564e-39
2.24472 0.02667997 -6.4969063e-06 4.978564e-39
2.2578459 0.026697446 -5.364418e-06 4.978564e-39
2.2666574 0.026709177 -6.3180923e-06 4.978564e-39
2.2755136 0.026720969 -7.390976e-06 4.978564e-39
2.2844145 0.026732821 -8.8214874e-06 4.978564e-39
2.2933543 0.02674472 -6.5565109e-06 4.978564e-39
2.3023446 0.026756689 -7.5101852e-06 4.978564e-39
2.3113761 0.02676871 -6.1988831e-06 4.978564e-39
2.3250194 0.026786875 -6.377697e-06 4.978564e-39
2.338757 0.026805166 -7.7486038e-06 4.978564e-39
2.3479736 0.026817434 -5.9604645e-06 4.978564e-39
2.3572433 0.026829775 -7.9870224e-06 4.978564e-39
2.3665569 0.026842175 -7.6293945e-06 4.978564e-39
2.3759201 0.02685464 -8.225441e-06 4.978564e-39
2.3853295 0.026867166 -7.6293945e-06 4.978564e-39
2.3947904 0.026879763 -8.7022781e-06 4.978564e-39
2.4042938 0.026892412 -6.0796738e-06 4.978564e-39
2.4138553 0.026905144 -8.225441e-06 4.978564e-39
2.4234595 0.026917927 -6.3180923e-06 4.978564e-39
2.43312 0.02693079 -7.9870224e-06 4.978564e-39
2.4428272 0.026943713 -7.2717667e-06 4.978564e-39
2.4525871 0.026956707 -7.5101852e-06 4.978564e-39
2.4623961 0.026969764 -6.5565109e-06 4.978564e-39
2.47226 0.026982896 -7.390976e-06 4.978564e-39
2.4821732 0.026996091 -6.4373016e-06 4.978564e-39
2.4921415 0.027009364 -6.7949295e-06 4.978564e-39
2.5021615 0.027022703 -6.4373016e-06 4.978564e-39
2.5122371 0.027036117 -7.2717667e-06 4.978564e-39
2.5220001 0.027156627 -0.0027062155 4.978564e-39
2.5325491 0.027063159 -7.9870224e-06 4.978564e-39
2.5427845 0.027076785 -6.9141388e-06 4.978564e-39
2.5530798 0.027090494 -8.4638596e-06 4.978564e-39
2.5634253 0.027104262 -7.0333481e-06 4.978564e-39
2.5738316 0.027118117 -7.9870224e-06 4.978564e-39
2.5842905 0.02713204 -6.7949295e-06 4.978564e-39
2.5948119 0.027146049 -8.5830688e-06 4.978564e-39
2.6053843 0.027160123 -6.7949295e-06 4.978564e-39
2.61602 0.027174283 -7.7486038e-06 4.978564e-39
2.6267128 0.027188519 -8.1062317e-06 4.978564e-39
2.6374648 0.027202833 -8.4638596e-06 4.978564e-39
2.6482728 0.027217221 -7.0333481e-06 4.978564e-39
2.6591461 0.027231697 -8.4638596e-06 4.978564e-39
2.6700737 0.027246244 -6.5565109e-06 4.978564e-39
2.6830244 0.02653482 -0.002852618 4.978564e-39
2.6921208 0.027275596 -7.2717667e-06 4.978564e-39
2.7032349 0.027290389 -6.3180923e-06 4.978564e-39
2.7144134 0.027305271 -6.5565109e-06 4.978564e-39
2.7256589 0.027320243 -8.7618828e-06 4.978564e-39
2.7369633 0.024667602 -8.4638596e-06 4.978564e-39
2.7483327 0.02467517 -8.7022781e-06 4.978564e-39
2.7597632 0.024682777 -7.0333481e-06 4.978564e-39
2.7712634 0.024690432 -7.7486038e-06 4.978564e-39
2.7828271 0.024698129 -7.2717667e-06 4.978564e-39
2.7944586 0.024705872 -7.5101852e-06 4.978564e-39
2.8046269 0.02500727 -0.0037822055 4.978564e-39
2.8179221 0.02472149 -7.5101852e-06 4.978564e-39
2.8297565 0.024729367 -7.8678131e-06 4.978564e-39
2.8371949 0.023247367 -0.0072330725 4.978564e-39
2.8432744 0.026113808 -0.0042491117 4.978564e-39
2.8536308 0.024745259 -7.9870224e-06 4.978564e-39
2.8656735 0.024753274 -8.4638596e-06 4.978564e-39
2.8777833 0.024761334 -7.2717667e-06 4.978564e-39
2.8899665 0.024769444 -7.2717667e-06 4.978564e-39
2.9022214 0.024777602 -7.2717667e-06 4.978564e-39
2.9145498 0.024785809 -7.7486038e-06 4.978564e-39
2.9269505 0.024794063 -7.8678131e-06 4.978564e-39
2.9394236 0.024802364 -7.2717667e-06 4.978564e-39
2.9519727 0.024810718 -7.7486038e-06 4.978564e-39
2.9645991 0.024819123 -8.9406967e-06 4.978564e-39
2.977298 0.024827575 -8.9406967e-06 4.978564e-39
2.9900739 0.02483608 -8.9406967e-06 4.978564e-39
3.0029252 0.024844633 -8.225441e-06 4.978564e-39
3.0158563 0.024853241 -8.4638596e-06 4.978564e-39
3.0288632 0.024861898 -7.5101852e-06 4.978564e-39
3.0419521 0.024870612 -7.9870224e-06 4.978564e-39
3.055119 0.024879375 -7.390976e-06 4.978564e-39
3.068373 0.024888199 -9.6559525e-06 4.978564e-39
3.0816991 0.024897069 -7.9870224e-06 4.978564e-39
3.095113 0.024905996 -8.5830688e-06 4.978564e-39
3.1086078 0.02491498 -8.225441e-06 4.978564e-39
3.1221879 0.024924019 -8.7022781e-06 4.978564e-39
3.1358478 0.024933111 -7.2717667e-06 4.978564e-39
3.1495981 0.024942264 -7.8678131e-06 4.978564e-39
3.1634324 0.024951471 -7.5101852e-06 4.978564e-39
3.1773555 0.02496074 -8.225441e-06 4.978564e-39
3.1913655 0.024970066 -8.4638596e-06 4.978564e-39
3.2054644 0.02497945 -9.1791153e-06 4.978564e-39
3.2196486 0.024988892 -7.6293945e-06 4.978564e-39
3.2339268 0.024998395 -7.9870224e-06 4.978564e-39
3.2482944 0.025007958 -7.7486038e-06 4.978564e-39
3.2536173 0.025306746 -0.0037977998 4.978564e-39
3.2627547 0.025017584 -7.6293945e-06 4.978564e-39
3.2773075 0.025027269 -7.2717667e-06 4.978564e-39
3.293191 0.02431171 -0.0042787027 4.978564e-39
3.3066957 0.025046831 -7.1525574e-06 4.978564e-39
3.3215382 0.025056712 -9.2983246e-06 4.978564e-39
3.3364701 0.025066651 -8.4638596e-06 4.978564e-39
3.3516769 0.026891246 -0.0043349937 4.978564e-39
3.3666303 0.025086727 -8.225441e-06 4.978564e-39
3.3818617 0.025096865 -9.1791153e-06 4.978564e-39
3.3971894 0.025107067 -8.4638596e-06 4.978564e-39
3.4126208 0.02511734 -8.8214874e-06 4.978564e-39
3.4281495 0.025127675 -6.7949295e-06 4.978564e-39
3.4319787 0.024625175 -0.0050107306 4.978564e-39
3.4437907 0.025138088 -8.8214874e-06 4.978564e-39
3.4595344 0.025148567 -9.894371e-06 4.978564e-39
3.4753783 0.025159113 -8.9406967e-06 4.978564e-39
3.4913356 0.025169736 -1.0848045e-05 4.978564e-39
3.5073941 0.025180424 -1.001358e-05 4.978564e-39
3.5235643 0.025191188 -1.0251999e-05 4.978564e-39
3.5398405 0.025202021 -9.1791153e-06 4.978564e-39
3.5562336 0.025212932 -1.0371208e-05 4.978564e-39
3.5727332 0.025223915 -9.5367432e-06 4.978564e-39
3.5893478 0.025234975 -9.2983246e-06 4.978564e-39
3.6060789 0.025246112 -9.6559525e-06 4.978564e-39
3.6229255 0.025257325 -1.0371208e-05 4.978564e-39
3.6398842 0.025268612 -9.059906e-06 4.978564e-39
3.6569684 0.025279986 -1.0728836e-05 4.978564e-39
3.674165 0.025291432 -9.7751617e-06 4.978564e-39
3.6914859 0.025302961 -1.013279e-05 4.978564e-39
3.7089264 0.025314569 -9.7751617e-06 4.978564e-39
3.7264917 0.025326261 -1.001358e-05 4.978564e-39
3.7441776 0.025338033 -8.9406967e-06 4.978564e-39
3.7619998 0.025349898 -1.1563301e-05 4.978564e-39
3.7799387 0.025361838 -1.0728836e-05 4.978564e-39
3.7980061 0.025373863 -9.7751617e-06 4.978564e-39
3.816206 0.025385978 -9.894371e-06 4.978564e-39
3.8345373 0.02539818 -1.013279e-05 4.978564e-39
3.8529999 0.02541047 -9.7751617e-06 4.978564e-39
3.8715947 0.025422845 -8.7022781e-06 4.978564e-39
3.8903303 0.025435317 -9.6559525e-06 4.978564e-39
3.9091988 0.025447875 -9.1791153e-06 4.978564e-39
3.9282067 0.025460528 -9.059906e-06 4.978564e-39
3.9473593 0.025473278 -1.0490417e-05 4.978564e-39
3.9666502 0.025486119 -1.0728836e-05 4.978564e-39
3.9860818 0.025499053 -1.0251999e-05 4.978564e-39
4.0056591 0.025512084 -9.894371e-06 4.978564e-39
4.0268764 0.0230489 -0.0013675347 4.978564e-39
4.0452547 0.025538441 -9.5367432e-06 4.978564e-39
4.0652761 0.025551766 -9.2983246e-06 4.978564e-39
4.0851994 0.027415648 -0.0043131593 4.978564e-39
4.1057773 0.025578726 -9.7751617e-06 4.978564e-39
4.1262603 0.025592359 -1.001358e-05 4.978564e-39
4.1468983 0.025606096 -1.001358e-05 4.978564e-39
4.1676965 0.025619941 -1.0728836e-05 4.978564e-39
4.1886511 0.025633888 -1.013279e-05 4.978564e-39
4.2097697 0.025647946 -9.894371e-06 4.978564e-39
4.2212915 0.020515423 -0.0064416779 4.978564e-39
4.2310538 0.025662113 -1.0371208e-05 4.978564e-39
4.2525029 0.02567639 -1.0251999e-05 4.978564e-39
4.2741208 0.025690781 -1.0728836e-05 4.978564e-39
4.2959046 0.02570528 -9.5367432e-06 4.978564e-39
4.317863 0.025719896 -9.6559525e-06 4.978564e-39
4.3399968 0.025734629 -9.894371e-06 4.978564e-39
4.3623085 0.02574948 -1.0967255e-05 4.978564e-39
4.3847966 0.02576445 -1.1444092e-05 4.978564e-39
4.4074597 0.025779534 -1.001358e-05 4.978564e-39
4.4303117 0.025794744 -1.0848045e-05 4.978564e-39
4.453341 0.025810074 -9.5367432e-06 4.978564e-39
4.4765677 0.025825536 -1.1205673e-05 4.978564e-39
4.4999728 0.025841113 -9.6559525e-06 4.978564e-39
4.5235758 0.025856825 -1.001358e-05 4.978564e-39
4.5473723 0.025872665 -1.0490417e-05 4.978564e-39
4.5755959 0.023152608 -0.00013716712 4.978564e-39
4.5955567 0.025904737 -1.1205673e-05 4.978564e-39
4.6199493 0.025920974 -1.1444092e-05 4.978564e-39
4.6445427 0.025937345 -1.0848045e-05 4.978564e-39
4.6693416 0.025953852 -1.0251999e-05 4.978564e-39
4.6943545 0.0259705 -1.0967255e-05 4.978564e-39
4.7195783 0.02598729 -1.1444092e-05 4.978564e-39
4.7450175 0.026004223 -1.2278557e-05 4.978564e-39
4.7706685 0.026021298 -1.180172e-05 4.978564e-39
4.7965426 0.02603852 -1.2278557e-05 4.978564e-39
4.8226357 0.026055887 -1.1444092e-05 4.978564e-39
4.8489585 0.026073411 -1.2397766e-05 4.978564e-39
4.8755069 0.026091082 -1.180172e-05 4.978564e-39
1.5486431 0.03513664 -4.529953e-06 4.978564e-39
1.5570865 0.035175983 -4.2319298e-06 4.978564e-39
1.5655781 0.03521556 -6.6757202e-06 4.978564e-39
1.5741229 0.035255373 -5.9604645e-06 4.978564e-39
1.5855929 0.035308816 -5.4240227e-06 4.978564e-39
1.5942546 0.035349179 -5.9604645e-06 4.978564e-39
1.6029736 0.0353898 -5.4240227e-06 4.978564e-39
1.6146785 0.035444345 -5.4836273e-06 4.978564e-39
1.6264791 0.035499331 -5.0663948e-06 4.978564e-39
1.6353925 0.035540868 -7.2717667e-06 4.978564e-39
1.6443628 0.035582662 -5.6028366e-06 4.978564e-39
1.6564088 0.035638791 -6.0200691e-06 4.978564e-39
1.6655022 0.035681155 -3.695488e-06 4.978564e-39
1.6746639 0.035723846 -5.3445497e-06 4.978564e-39
1.6838756 0.035766777 -6.5565109e-06 4.978564e-39
1.6931483 0.035809983 -5.0663948e-06 4.978564e-39
1.705602 0.035868015 -5.7816505e-06 4.978564e-39
1.7150074 0.035911839 -5.9604645e-06 4.978564e-39
1.7244769 0.035955958 -4.4703484e-06 4.978564e-39
1.7340053 0.034000307 -7.1525574e-06 4.978564e-39
1.7435968 0.034038611 -6.1392784e-06 4.978564e-39
1.7564758 0.034090042 -4.4107437e-06 4.978564e-39
1.7662061 0.034128904 -4.7683716e-06 4.978564e-39
1.7760072 0.03416805 -5.7220459e-06 4.978564e-39
1.7866935 0.035983961 -0.0031823197 4.978564e-39
1.7957901 0.034247063 -5.543232e-06 4.978564e-39
1.805776 0.034286954 -6.4373016e-06 4.978564e-39
1.8158313 0.034327105 -4.9471855e-06 4.978564e-39
1.8259491 0.034367524 -6.4373016e-06 4.978564e-39
1.8361368 0.034408204 -5.0067902e-06 4.978564e-39
1.8463871 0.034449145 -5.4836273e-06 4.978564e-39
1.8532624 0.034476612 -7.1525574e-06 4.978564e-39
1.8636317 0.034518022 -6.1690807e-06 4.978564e-39
1.874063 0.034559682 -5.543232e-06 4.978564e-39
1.884573 0.034601659 -5.9902668e-06 4.978564e-39
1.8951451 0.034643885 -5.8412552e-06 4.978564e-39
1.905795 0.034686416 -4.8577785e-06 4.978564e-39
1.9165142 0.034729239 -7.8678131e-06 4.978564e-39
1.9236962 0.034757912 -4.8875809e-06 4.978564e-39
1.9345421 0.034801234 -5.9008598e-06 4.978564e-39
1.9454551 0.034844827 -7.9870224e-06 4.978564e-39
1.9527684 0.034874026 -5.0067902e-06 4.978564e-39
1.9638134 0.034918144 -6.2584877e-06 4.978564e-39
1.9749248 0.03496252 -6.9141388e-06 4.978564e-39
1.9861212 0.035007242 -7.212162e-06 4.978564e-39
1.995309 0.035167139 -0.0015498847 4.978564e-39
2.0049417 0.035082407 -7.0333481e-06 4.978564e-39
2.0138872 0.035520628 -0.0013740616 4.978564e-39
2.0239899 0.035158485 -6.9141388e-06 4.978564e-39
2.035517 0.035204522 -5.8412552e-06 4.978564e-39
2.0432506 0.035235409 -5.8412552e-06 4.978564e-39
2.054925 0.035282038 -6.7353249e-06 4.978564e-39
2.0666733 0.035328966 -7.9870224e-06 4.978564e-39
2.0745533 0.035360437 -7.7486038e-06 4.978564e-39
2.0824697 0.035392053 -7.0333481e-06 4.978564e-39
2.0944197 0.035439774 -6.0796738e-06 4.978564e-39
2.1064465 0.035487808 -5.6028366e-06 4.978564e-39
2.1145186 0.035520054 -7.2717667e-06 4.978564e-39
2.1226256 0.035552435 -6.6757202e-06 4.978564e-39
2.1348653 0.035601314 -6.377697e-06 4.978564e-39
2.1471872 0.035650536 -8.225441e-06 4.978564e-39
2.1554501 0.035683528 -6.4373016e-06 4.978564e-39
2.1637576 0.035716712 -7.7486038e-06 4.978564e-39
2.1720991 0.035750017 -4.8875809e-06 4.978564e-39
2.1847005 0.035800349 -5.364418e-06 4.978564e-39
2.1973865 0.035851024 -7.7486038e-06 4.978564e-39
2.2058959 0.035885006 -7.0333481e-06 4.978564e-39
2.2144489 0.035919175 -7.5101852e-06 4.978564e-39
2.2230418 0.035953484 -6.5565109e-06 4.978564e-39
2.2316804 0.035987992 -7.5101852e-06 4.978564e-39
2.24472 0.036040068 -6.4969063e-06 4.978564e-39
2.2578459 0.03609249 -5.364418e-06 4.978564e-39
2.2666574 0.036127687 -6.3180923e-06 4.978564e-39
2.2755117 0.036163047 -6.2584877e-06 4.978564e-39
2.2844145 0.036198616 -8.8214874e-06 4.978564e-39
2.2933543 0.036234312 -6.5565109e-06 4.978564e-39
2.3023446 0.036270224 -7.5101852e-06 4.978564e-39
2.3113761 0.036306288 -6.1988831e-06 4.978564e-39
2.3250194 0.036360778 -6.377697e-06 4.978564e-39
2.338757 0.036415651 -7.7486038e-06 4.978564e-39
2.3479736 0.036452457 -5.9604645e-06 4.978564e-39
2.3572412 0.036489472 -6.7949295e-06 4.978564e-39
2.3665569 0.03652668 -7.6293945e-06 4.978564e-39
2.3759201 0.036564082 -8.225441e-06 4.978564e-39
2.3853295 0.036601659 -7.6293945e-06 4.978564e-39
2.3947904 0.036639448 -8.7022781e-06 4.978564e-39
2.4042938 0.036677394 -6.0796738e-06 4.978564e-39
2.4138553 0.036715589 -8.225441e-06 4.978564e-39
2.4234595 0.036753945 -6.3180923e-06 4.978564e-39
2.43312 0.036792532 -7.9870224e-06 4.978564e-39
2.4428263 0.036831293 -6.7353249e-06 4.978564e-39
2.4525871 0.036870282 -7.5101852e-06 4.978564e-39
2.4623961 0.036909454 -6.5565109e-06 4.978564e-39
2.47226 0.036948852 -7.390976e-06 4.978564e-39
2.4821732 0.036988445 -6.4373016e-06 4.978564e-39
2.4921415 0.037028257 -6.7949295e-06 4.978564e-39
2.5021615 0.037068278 -6.4373016e-06 4.978564e-39
2.5122371 0.037108518 -7.2717667e-06 4.978564e-39
2.5223644 0.037148964 -6.6757202e-06 4.978564e-39
2.5331392 0.03666399 -0.000808754 4.978564e-39
2.5427845 0.037230521 -6.9141388e-06 4.978564e-39
2.5530798 0.037271649 -8.4638596e-06 4.978564e-39
2.5634253 0.037312962 -7.0333481e-06 4.978564e-39
2.5738316 0.037354529 -7.9870224e-06 4.978564e-39
2.5842905 0.037396297 -6.7949295e-06 4.978564e-39
2.5948119 0.034865256 -8.5830688e-06 4.978564e-39
2.6053843 0.034900438 -6.7949295e-06 4.978564e-39
2.61602 0.034935839 -7.7486038e-06 4.978564e-39
2.6267109 0.03497142 -7.0333481e-06 4.978564e-39
2.6374648 0.035007216 -8.4638596e-06 4.978564e-39
2.6482728 0.035043184 -7.0333481e-06 4.978564e-39
2.6591461 0.035079379 -8.4638596e-06 4.978564e-39
2.6700737 0.035115741 -6.5565109e-06 4.978564e-39
2.6810672 0.035152331 -7.2717667e-06 4.978564e-39
2.6921208 0.035189122 -7.2717667e-06 4.978564e-39
2.7032349 0.03522611 -6.3180923e-06 4.978564e-39
2.7144134 0.035263319 -6.5565109e-06 4.978564e-39
2.7256567 0.035300739 -7.7486038e-06 4.978564e-39
2.7369633 0.032670684 -8.4638596e-06 4.978564e-39
2.7483327 0.032700952 -8.7022781e-06 4.978564e-39
2.7597632 0.032731384 -7.0333481e-06 4.978564e-39
2.7731504 0.033039391 -0.00082068332 4.978564e-39
2.7828271 0.032792799 -7.2717667e-06 4.978564e-39
2.7944586 0.032823768 -7.5101852e-06 4.978564e-39
2.8061564 0.032854915 -7.390976e-06 4.978564e-39
2.8179221 0.032886244 -7.5101852e-06 4.978564e-39
2.8297544 0.032917745 -6.7949295e-06 4.978564e-39
2.8416615 0.032949455 -9.059906e-06 4.978564e-39
2.8536308 0.032981321 -7.9870224e-06 4.978564e-39
2.8656735 0.033013389 -8.4638596e-06 4.978564e-39
2.8777833 0.033045627 -7.2717667e-06 4.978564e-39
2.8899665 0.033078067 -7.2717667e-06 4.978564e-39
2.9022214 0.033110697 -7.2717667e-06 4.978564e-39
2.9145498 0.033143524 -7.7486038e-06 4.978564e-39
2.9269505 0.033176541 -7.8678131e-06 4.978564e-39
2.9394236 0.033209756 -7.2717667e-06 4.978564e-39
2.9519727 0.033243168 -7.7486038e-06 4.978564e-39
2.9645991 0.033276789 -8.9406967e-06 4.978564e-39
2.977298 0.0333106 -8.9406967e-06 4.978564e-39
2.9900739 0.033344619 -8.9406967e-06 4.978564e-39
3.0029252 0.033378839 -8.225441e-06 4.978564e-39
3.0158563 0.033413269 -8.4638596e-06 4.978564e-39
3.0288632 0.033447899 -7.5101852e-06 4.978564e-39
3.0419521 0.033482749 -7.9870224e-06 4.978564e-39
3.055119 0.033517808 -7.390976e-06 4.978564e-39
3.068373 0.033553101 -9.6559525e-06 4.978564e-39
3.0816991 0.033588581 -7.9870224e-06 4.978564e-39
3.095113 0.033624299 -8.5830688e-06 4.978564e-39
3.1086078 0.033660226 -8.225441e-06 4.978564e-39
3.1221879 0.033696391 -8.7022781e-06 4.978564e-39
3.1358478 0.033732757 -7.2717667e-06 4.978564e-39
3.1495981 0.033769369 -7.8678131e-06 4.978564e-39
3.1634324 0.033806205 -7.5101852e-06 4.978564e-39
3.1749649 0.035092145 -0.0025376223 4.978564e-39
3.1913664 0.033880584 -8.9406967e-06 4.978564e-39
3.2054644 0.03391812 -9.1791153e-06 4.978564e-39
3.2196507 0.033955894 -8.6426735e-06 4.978564e-39
3.2339268 0.033993904 -7.9870224e-06 4.978564e-39
3.2482965 0.03403217 -8.6426735e-06 4.978564e-39
3.2594373 0.039658993 -0.0072766584 4.978564e-39
3.2627547 0.034070663 -7.6293945e-06 4.978564e-39
3.2773099 0.034109421 -8.2850456e-06 4.978564e-39
3.2803047 0.037709162 -0.00231091 4.978564e-39
3.2919574 0.034148417 -8.4638596e-06 4.978564e-39
3.305342 0.034545686 -0.0015693026 4.978564e-39
3.3215373 0.034227178 -8.8810921e-06 4.978564e-39
3.3364747 0.034266956 -1.0371208e-05 4.978564e-39
3.3515041 0.034306973 -9.5367432e-06 4.978564e-39
3.3666346 0.034347259 -9.894371e-06 4.978564e-39
3.3818617 0.034387801 -9.1791153e-06 4.978564e-39
3.3971937 0.034428626 -1.013279e-05 4.978564e-39
3.4126208 0.034469701 -8.8214874e-06 4.978564e-39
3.4281538 0.03451106 -8.7022781e-06 4.978564e-39
3.4437907 0.034552693 -8.8214874e-06 4.978564e-39
3.4595332 0.03459461 -9.4771385e-06 4.978564e-39
3.4753783 0.034636799 -8.9406967e-06 4.978564e-39
3.4913356 0.034679294 -1.0848045e-05 4.978564e-39
3.5073941 0.034722045 -1.001358e-05 4.978564e-39
3.5235643 0.034765102 -1.0251999e-05 4.978564e-39
3.5398405 0.034808438 -9.1791153e-06 4.978564e-39
3.5562336 0.034852091 -1.0371208e-05 4.978564e-39
3.5727332 0.03489602 -9.5367432e-06 4.978564e-39
3.5893478 0.034940258 -9.2983246e-06 4.978564e-39
3.6060765 0.034984801 -8.9406967e-06 4.978564e-39
3.6229255 0.035029665 -1.0371208e-05 4.978564e-39
3.6398842 0.035074815 -9.059906e-06 4.978564e-39
3.6569684 0.035120308 -1.0728836e-05 4.978564e-39
3.674165 0.035166092 -9.7751617e-06 4.978564e-39
3.6914859 0.035212215 -1.013279e-05 4.978564e-39
3.7089264 0.035258651 -9.7751617e-06 4.978564e-39
3.7264917 0.035305422 -1.001358e-05 4.978564e-39
3.7441776 0.035352506 -8.9406967e-06 4.978564e-39
3.7619951 0.035399951 -1.001358e-05 4.978564e-39
3.7799387 0.035447732 -1.0728836e-05 4.978564e-39
3.7980061 0.035495836 -9.7751617e-06 4.978564e-39
3.8044167 0.038114823 -0.0041038268 4.978564e-39
3.816206 0.035544295 -9.894371e-06 4.978564e-39
3.8345373 0.035593107 -1.013279e-05 4.978564e-39
3.8529999 0.035642266 -9.7751617e-06 4.978564e-39
3.8715947 0.035691768 -8.7022781e-06 4.978564e-39
3.8903303 0.035741661 -9.6559525e-06 4.978564e-39
3.9091988 0.035791896 -9.1791153e-06 4.978564e-39
3.9282067 0.035842508 -9.059906e-06 4.978564e-39
3.9473593 0.035893507 -1.0490417e-05 4.978564e-39
3.9666502 0.035944872 -1.0728836e-05 4.978564e-39
3.9860818 0.035996608 -1.0251999e-05 4.978564e-39
4.0056591 0.03604874 -9.894371e-06 4.978564e-39
4.0253849 0.036101263 -1.0490417e-05 4.978564e-39
4.0452547 0.036154166 -9.5367432e-06 4.978564e-39
4.0591497 0.032452114 -0.0044160658 4.978564e-39
4.0652761 0.036207475 -9.2983246e-06 4.978564e-39
4.0854516 0.036261193 -9.894371e-06 4.978564e-39
4.1057773 0.036315314 -9.7751617e-06 4.978564e-39
4.1269746 0.03459521 -0.0015490184 4.978564e-39
4.1468983 0.032818567 -1.001358e-05 4.978564e-39
4.1676965 0.032860104 -1.0728836e-05 4.978564e-39
4.1886511 0.032901946 -1.013279e-05 4.978564e-39
4.2097697 0.03294412 -9.894371e-06 4.978564e-39
4.2310538 0.032986626 -1.0371208e-05 4.978564e-39
4.2525029 0.033029456 -1.0251999e-05 4.978564e-39
4.2741208 0.033072628 -1.0728836e-05 4.978564e-39
4.2959046 0.033116125 -9.5367432e-06 4.978564e-39
4.317863 0.033159975 -9.6559525e-06 4.978564e-39
4.3389978 0.0340086 -0.001330683 4.978564e-39
4.3623085 0.033248734 -1.0967255e-05 4.978564e-39
4.3847966 0.033293642 -1.1444092e-05 4.978564e-39
4.4074597 0.033338897 -1.001358e-05 4.978564e-39
4.4303117 0.033384532 -1.0848045e-05 4.978564e-39
4.453341 0.03343052 -9.5367432e-06 4.978564e-39
4.4765677 0.033476904 -1.1205673e-05 4.978564e-39
4.4999728 0.033523642 -9.6559525e-06 4.978564e-39
4.5235782 0.033570781 -1.0728836e-05 4.978564e-39
4.5473752 0.033618305 -1.1324883e-05 4.978564e-39
4.5713658 0.033666212 -1.0967255e-05 4.978564e-39
4.5955586 0.033714525 -1.168251e-05 4.978564e-39
4.6199517 0.033763237 -1.2278557e-05 4.978564e-39
4.6445451 0.033812348 -1.1563301e-05 4.978564e-39
4.6693444 0.033861872 -1.1086464e-05 4.978564e-39
4.6943569 0.033911821 -1.168251e-05 4.978564e-39
4.7195811 0.033962194 -1.2159348e-05 4.978564e-39
4.7290983 0.031003743 -0.0030230167 4.978564e-39
4.7360578 0.030385334 -0.007086969 4.978564e-39
4.7450175 0.034012988 -1.2278557e-05 4.978564e-39
4.7706685 0.034064211 -1.180172e-05 4.978564e-39
4.7965379 0.03411587 -1.0967255e-05 4.978564e-39
4.8226357 0.034167986 -1.1444092e-05 4.978564e-39
4.8489585 0.034220554 -1.2397766e-05 4.978564e-39
4.8755069 0.034273569 -1.180172e-05 4.978564e-39
1.5486431 0.044519994 -4.529953e-06 4.978564e-39
1.5570865 0.044587433 -4.2319298e-06 4.978564e-39
1.5655781 0.044655282 -6.6757202e-06 4.978564e-39
1.5741229 0.044723537 -5.9604645e-06 4.978564e-39
1.585593 0.044815153 -5.4240227e-06 4.978564e-39
1.5942546 0.044884343 -5.9604645e-06 4.978564e-39
1.6029735 0.044953987 -5.4240227e-06 4.978564e-39
1.6146785 0.045047484 -5.4836273e-06 4.978564e-39
1.626479 0.045141745 -5.0663948e-06 4.978564e-39
1.6353925 0.045212962 -7.2717667e-06 4.978564e-39
1.6443628 0.045284607 -5.6028366e-06 4.978564e-39
1.6564087 0.045380827 -6.0200691e-06 4.978564e-39
1.665503 0.045453459 -4.3511391e-06 4.978564e-39
1.6746631 0.045526631 -4.8279762e-06 4.978564e-39
1.6838756 0.045600232 -6.5565109e-06 4.978564e-39
1.6931487 0.045674294 -5.4240227e-06 4.978564e-39
1.7056025 0.045773782 -6.1690807e-06 4.978564e-39
1.7150083 0.045848921 -6.6757202e-06 4.978564e-39
1.724478 0.045924552 -5.1856041e-06 4.978564e-39
1.7340053 0.044000607 -7.1525574e-06 4.978564e-39
1.7435974 0.04407084 -6.5763793e-06 4.978564e-39
1.7564769 0.044165138 -5.3246818e-06 4.978564e-39
1.7662072 0.044236392 -5.6425729e-06 4.978564e-39
1.7760078 0.044308156 -6.1591468e-06 4.978564e-39
1.7857153 0.044821076 -0.0012171072 4.978564e-39
1.795791 0.04445301 -6.1392784e-06 4.978564e-39
1.8057777 0.044526145 -7.7486038e-06 4.978564e-39
1.8158321 0.044599757 -5.543232e-06 4.978564e-39
1.8259491 0.044673841 -6.4373016e-06 4.978564e-39
1.8361378 0.04474844 -5.7816505e-06 4.978564e-39
1.8463863 0.044823479 -4.7683716e-06 4.978564e-39
1.8532614 0.044873822 -6.2386193e-06 4.978564e-39
1.8636326 0.04494977 -6.7949295e-06 4.978564e-39
1.8740648 0.045026165 -6.7949295e-06 4.978564e-39
1.8845736 0.045103107 -6.3180923e-06 4.978564e-39
1.8951451 0.045180511 -5.8412552e-06 4.978564e-39
1.9057952 0.045258489 -5.1856041e-06 4.978564e-39
1.9165128 0.045336973 -7.0730844e-06 4.978564e-39
1.9236962 0.045389559 -4.8875809e-06 4.978564e-39
1.9345421 0.045468982 -5.9008598e-06 4.978564e-39
1.9454551 0.045548905 -7.9870224e-06 4.978564e-39
1.9527684 0.04560243 -5.0067902e-06 4.978564e-39
1.963075 0.044815715 -6.3657762e-06 4.978564e-39
1.9749248 0.043604251 -6.9141388e-06 4.978564e-39
1.9861212 0.043678787 -7.212162e-06 4.978564e-39
1.9973844 0.043753751 -6.0796738e-06 4.978564e-39
2.0049417 0.043804061 -7.0333481e-06 4.978564e-39
2.0125308 0.043854572 -5.6028366e-06 4.978564e-39
2.0239899 0.043930858 -6.9141388e-06 4.978564e-39
2.035517 0.044007581 -5.8412552e-06 4.978564e-39
2.0432506 0.044059061 -5.8412552e-06 4.978564e-39
2.054925 0.044136774 -6.7353249e-06 4.978564e-39
2.0666733 0.04421499 -7.9870224e-06 4.978564e-39
2.0745533 0.044267442 -7.7486038e-06 4.978564e-39
2.0824697 0.044320133 -7.0333481e-06 4.978564e-39
2.0944197 0.044399671 -6.0796738e-06 4.978564e-39
2.1064465 0.044479728 -5.6028366e-06 4.978564e-39
2.1151457 0.043293431 -0.0017408505 4.978564e-39
2.1226237 0.044587411 -5.364418e-06 4.978564e-39
2.1348653 0.044668905 -6.377697e-06 4.978564e-39
2.1471872 0.044750936 -8.225441e-06 4.978564e-39
2.1554501 0.044805929 -6.4373016e-06 4.978564e-39
2.1637576 0.044861238 -7.7486038e-06 4.978564e-39
2.1720991 0.044916745 -4.8875809e-06 4.978564e-39
2.1847005 0.045000635 -5.4836273e-06 4.978564e-39
2.1973848 0.045085073 -6.5565109e-06 4.978564e-39
2.2058959 0.045141727 -7.0333481e-06 4.978564e-39
2.2144489 0.045198668 -7.5101852e-06 4.978564e-39
2.2230418 0.045255862 -6.5565109e-06 4.978564e-39
2.2316804 0.045313373 -7.5101852e-06 4.978564e-39
2.24472 0.045400165 -6.4969063e-06 4.978564e-39
2.2578459 0.045487531 -5.364418e-06 4.978564e-39
2.2666574 0.045546193 -6.3180923e-06 4.978564e-39
2.2755098 0.045605112 -5.1259995e-06 4.978564e-39
2.2844145 0.045664407 -8.8214874e-06 4.978564e-39
2.2933543 0.0457239 -6.5565109e-06 4.978564e-39
2.3023446 0.045783758 -7.5101852e-06 4.978564e-39
2.3113761 0.045843862 -6.1988831e-06 4.978564e-39
2.3250194 0.045934685 -6.377697e-06 4.978564e-39
2.338757 0.046026137 -7.7486038e-06 4.978564e-39
2.3479736 0.046087477 -5.9604645e-06 4.978564e-39
2.3572392 0.046149153 -5.6028366e-06 4.978564e-39
2.3665569 0.046211191 -7.6293945e-06 4.978564e-39
2.3741207 0.046118289 -0.0015348009 4.978564e-39
2.3853295 0.046336152 -7.6293945e-06 4.978564e-39
